# .PCD v0.7 - Point Cloud Data file format
VERSION 0.7
FIELDS x y z normal_x normal_y normal_z curvature
SIZE 4 4 4 4 4 4 4
TYPE F F F F F F F
COUNT 1 1 1 1 1 1 1
WIDTH 619
HEIGHT 1
VIEWPOINT 0 0 0 1 0 0 0
POINTS 619
DATA ascii
0.46787655 -1.4082441 3.2746067 0.33860278 -1.1536345 0.88888836 0.030436283
0.48158142 -1.412186 3.281997 -0.3636868 -0.4226698 0.89243823 0.045882441
0.49082041 -1.397153 3.2493577 0.19737166 -0.32217419 0.92587698 0.011691526
0.50904375 -1.4125757 3.2842758 -2.0360637 -0.31196988 0.93264389 0.027255865
0.51689994 -1.3962343 3.2463813 0.92255986 -0.25444329 0.67271143 0.10815684
0.52784312 -1.3841869 3.2188623 0.93157649 -0.10602266 0.35752538 0.029957701
0.53554177 -1.3778359 3.2037971 1.2398895 0.040241942 -0.2024059 0.021811053
0.56087464 -1.4106904 3.2807808 0.83492565 0.071923703 -0.56626892 0.051439036
0.57839346 -1.4198564 3.3028593 -0.40462887 0.045346886 0.91464829 0.17800723
0.5999428 -1.4381009 3.344033 0.98428482 2.2910079e-07 -0.17658821 0
0.60568571 -1.4204488 3.3039565 -0.1817154 -0.37061259 0.93397111 0.047388099
0.62052286 -1.4230785 3.3091366 -11.203435 0.06365943 1.9617357 0.082205072
0.62278223 -1.3979458 3.2506669 -3.0856035 -0.12057301 0.74072295 0.040681537
0.64203602 -1.4112962 3.2817039 1.1574107 0.064820126 -0.27947786 0.0089692445
0.64377522 -1.3979727 3.2570465 0.77786881 -0.96871585 0.54598278 0.13383068
0.67972678 -1.4291899 3.3238177 0.83360493 0.2972227 -0.46874556 0.01543455
0.69508672 -1.4376651 3.3432941 0.22852704 0.30793399 1.4018461 0.096896373
0.7161088 -1.4535091 3.3798621 0.97828346 -8.7097902e-07 -0.20727156 4.742136e-13
0.71635312 -1.4308414 3.3286717 0.82585871 -0.24645793 0.53759336 0.031791151
0.72437131 -1.4210953 3.3055758 0.97029555 -0.21437648 0.11979277 0.018195139
0.72054815 -1.3843566 3.2179947 -1.8367025 -0.015482992 1.8737335 0.15151311
0.73739386 -1.3901948 3.2327557 0.56416827 0.31718987 1.0087328 0.15053019
0.7460587 -1.3820496 3.2129591 2.1292398 0.011020401 1.0154532 0.10222568
0.77421802 -1.4094634 3.277442 5.2807837 1.0595164 0.57466972 0.054625019
0.79172385 -1.416662 3.2949409 -0.12798539 0.23693661 1.0417032 0.22235356
0.7994889 -1.3990542 3.2680545 -0.39672482 -0.5500288 -0.83905125 0.067247905
0.81417012 -1.4107927 3.2800519 0.94312423 0.37501934 0.19262588 0.16784126
0.82109922 -1.3980443 3.2512946 0.66454178 0.016332105 0.76326919 0.07660915
0.82804197 -1.3959618 3.2443211 0.85182893 0.040822446 0.54584396 0.080833107
0.87096822 -1.4327846 3.3319836 -0.66489929 -0.29805934 0.72051936 0.1134531
0.88648331 -1.4369758 3.3436201 0.11463595 -0.32494402 1.0415039 0.071051367
0.89693868 -1.4355645 3.3381352 4.5066915 -1.3419621 -1.4530883 0.10559665
0.93438172 -1.47324 3.4257424 0.96475697 1.2204122e-06 -0.26314262 3.6062603e-13
0.95869637 -1.4894147 3.4633534 0.96375412 -1.5075942e-06 -0.26679215 4.2798493e-13
-2.8306892 -1.9834771 4.6561446 -2.9266541e-06 -0.91999871 -0.39192134 0
0.086449131 -1.7433156 4.0923734 0.67510629 -0.73136967 0.096591406 0
0.13437434 -1.7148204 4.0263252 -0.26180074 -0.64897156 0.71435028 0.008038708
0.15022865 -1.7171457 4.0300231 -0.26180074 -0.64897156 0.71435028 0.008038708
0.17406441 -1.3835838 3.2479155 0.99856704 3.0367158e-07 -0.0535152 0
0.18872552 -1.3613029 3.1991451 0.75131464 0.43366656 -0.5134815 0.15121084
0.19508906 -1.3725804 3.2180483 0.81313753 -0.0015271063 0.6847356 0.16263087
0.21021195 -1.3643346 3.2031813 0.52516723 -0.47833228 0.70530081 0.15604499
0.22317603 -1.3538822 3.1789277 1.9565761 0.23848011 -1.9666051 0.10140437
0.23642312 -1.3637308 3.2015498 0.22902769 -0.5041129 0.83683038 0.020495674
0.24870482 -1.3621223 3.1976779 0.51582497 -0.41353196 0.75157589 0.026769614
0.26116213 -1.356802 3.1850507 0.97730786 -0.21029224 0.24496897 0.016831193
0.28260097 -1.3961506 3.2771587 0.92731464 0.028357247 -0.38396871 0.025888883
0.29944852 -1.4051226 3.2972915 0.80669564 0.061480734 -0.58776039 0.021741444
0.30546743 -1.3817867 3.2436836 4.2804165 0.012545288 -0.4711566 0.056763805
0.31460971 -1.3642697 3.2025764 0.9952094 4.2517058e-08 -0.097766615 3.8612217e-14
0.32987645 -1.3780777 3.2334805 0.64970219 -0.22401947 0.76468587 0.089460753
0.34273991 -1.3702954 3.2189229 0.55880362 0.13759913 0.84938538 0.062959388
0.3549327 -1.3715811 3.2172251 0.020360118 0.053053401 1.0423795 0.095877357
0.36871922 -1.3720357 3.2192221 0.26658756 -0.14916514 1.0792798 0.035443887
0.38697726 -1.3907462 3.2646909 -0.25781447 0.14092314 0.96598673 0.018274644
0.40083462 -1.3925638 3.2686906 -1.3165596 -0.019076493 0.56312293 0.012177998
0.4081839 -1.3729815 3.2230272 0.9920758 -7.1380242e-07 -0.12564075 4.3516568e-13
0.41708183 -1.3595829 3.1914251 6.3885388 0.032665532 -0.71478057 0.029695451
0.45030162 -1.3818054 3.2437408 0.99050128 2.8780354e-07 -0.13750353 2.4733061e-13
0.46993813 -1.3994581 3.2856061 0.33903024 0.73573065 -0.72317708 0.020028017
0.48432279 -1.3992814 3.2894411 -0.16253291 -0.66382062 0.73495781 0.14585125
0.49112383 -1.3859308 3.2543621 0.35513532 -0.75645429 0.55536884 0.047511321
0.50996095 -1.4017256 3.2904165 0.33192208 0.14766484 -1.2683924 0.11822712
0.51729226 -1.3837643 3.2491953 0.8261317 -0.25848576 0.72274536 0.12811863
0.52590293 -1.3718574 3.2204511 0.87788713 -0.19315173 0.46756217 0.023701373
0.53517824 -1.3653989 3.2048602 0.83497733 0.037123866 0.56793237 0.02047549
0.56284291 -1.3976879 3.2793708 0.70685756 -0.23192213 -0.66825485 0.010257613
0.57920951 -1.406672 3.3012064 -0.44529599 0.17819382 0.88183618 0.02859465
0.5999428 -1.4245291 3.344033 0.98428482 2.2910079e-07 -0.17658821 0
0.6070115 -1.4088261 3.305609 -0.13302706 -0.0089191636 0.99375296 0.025208989
0.61914033 -1.4078982 3.3068774 -0.26413086 0.16144753 0.97848397 0.033759538
0.62277824 -1.3847719 3.2507045 -2.5626631 0.0039395266 0.43496746 0.024931682
0.64207965 -1.3979791 3.2817175 1.1116575 -0.0062924344 -0.20516793 0.0077321469
0.64090246 -1.3884211 3.2558386 0.95458847 0.57874012 -0.46000692 0.21779568
0.67802584 -1.4163177 3.3244529 -0.50085729 -0.066168986 -2.0694332 0.023662621
0.69410443 -1.4256279 3.3457515 -0.12207291 0.014471035 1.2334735 0.13139623
0.7161088 -1.4397919 3.3798621 0.97828341 1.7075029e-17 -0.20727181 0
0.72115916 -1.4176193 3.3282924 0.82552212 -0.15741448 0.54217362 0.062358987
0.72635716 -1.4065127 3.3017404 1.1266943 0.11005653 -0.39468226 0.014440919
0.72389227 -1.374328 3.224669 -1.3021371 -0.6066004 1.6352857 0.12600121
0.7367568 -1.3764309 3.2307003 0.26626948 -0.31134084 0.92677706 0.15085603
0.74593663 -1.3689595 3.2148621 2.1154697 -0.14827362 0.087153181 0.19672108
0.77221227 -1.3925449 3.2689512 -8.1457691 0.07824108 2.1139841 0.103494
0.79578137 -1.4098306 3.309088 0.95812976 -0.27540806 0.11682586 0.082094818
0.79978251 -1.394351 3.273191 -1.2739034 -0.16595334 0.82189161 0.12184037
0.82007951 -1.4023883 3.2945871 -1.4856141 -0.27782837 0.58762521 0.16428168
0.82656223 -1.3821734 3.2459264 0.92457509 -0.46379378 0.32979187 0.14830223
0.8296684 -1.3793937 3.2379084 0.97574651 -0.36988625 0.16657956 0.14830223
0.86767393 -1.418216 3.3292484 1.7389054 0.58017629 1.1496916 0.079166323
0.88382721 -1.4256325 3.3455076 -0.38316947 -0.50211358 0.79542595 0.070526436
0.89901447 -1.4236699 3.343236 0.62424874 -0.87757534 1.0328584 0.096552834
0.93438172 -1.4593365 3.4257424 0.96475697 1.6741461e-06 -0.26314244 4.026091e-13
0.95782 -1.47401 3.4601877 0.9637562 3.1535224e-06 -0.26678461 3.2195926e-12
0.95782 -1.47401 3.4601877 0.9637562 3.1535224e-06 -0.26678461 3.2195926e-12
-2.8252606 -1.9478092 4.6163969 1.7128275e-17 -0.95307982 0.30271909 0
-2.7705901 -1.9621665 4.6504245 0.58993274 -0.51619714 0.62090242 0
0.17318894 -1.362584 3.2301683 0.25304508 0.61253822 0.74884254 0.01919326
0.18389992 -1.3506677 3.2008588 -1.1948504 -0.43586645 0.34564048 0.10072883
0.19594736 -1.3597622 3.2225339 0.53257108 -0.34193835 0.77468979 0.16743703
0.21113914 -1.3552241 3.2116268 0.35881299 -0.2278918 0.91963196 0.12213781
0.22202888 -1.3416241 3.1797106 0.99757099 2.8354748e-08 -0.069657028 1.1445991e-14
0.23701479 -1.3539538 3.208926 0.25264016 -0.31673694 0.91658121 0.027198711
0.24961522 -1.3523254 3.2050128 0.49248749 -0.30138284 0.82775307 0.035745092
0.26127067 -1.3466339 3.1915562 0.85600591 -0.17531644 0.49318212 0.02372425
0.28263155 -1.3834394 3.2786188 0.89925241 -0.04481706 -0.44447583 0.024022242
0.29716203 -1.3912923 3.2974262 1.2492802 -0.0017565583 -0.031190595 0.017786466
0.30613309 -1.3711045 3.2496679 6.2007046 0.041912347 -0.95891196 0.057089794
0.31485948 -1.35302 3.2068267 -1.150712 -0.088879921 0.34085685 0.045694545
0.33052683 -1.3646312 3.2336926 0.65577811 0.20393318 0.72776091 0.029219985
0.34195629 -1.3546622 3.2140069 0.24358529 0.35042918 0.90930098 0.10520542
0.35419887 -1.3536263 3.2078316 -0.13064775 0.39170128 0.92409438 0.049784567
0.36792079 -1.3562194 3.2156074 -0.48663738 0.16245256 0.9476068 0.025875123
0.38619965 -1.3745539 3.2576094 0.26242483 0.66183603 1.3050835 0.0095497463
0.40058041 -1.3792443 3.2693243 -0.49422953 0.062061403 0.87647283 0.018274644
0.40905458 -1.3628017 3.2299023 0.99207556 1.871412e-07 -0.12564272 4.4944164e-13
0.41842055 -1.3507181 3.2013097 -15.776553 0.02841391 2.0982301 0.040513553
0.43104216 -1.3495589 3.1985147 16.187248 0.63027138 0.049428552 0.040513553
0.45223922 -1.3745297 3.2576983 0.99050117 8.6453338e-07 -0.13750415 2.5477127e-13
0.47260743 -1.391482 3.2979655 0.58130211 0.43125075 -0.76996344 0.045910906
0.48628905 -1.3960967 3.3088169 -0.35352033 -0.80053866 0.67851597 0.062761523
0.49544239 -1.3824232 3.2757785 0.93477035 -0.19529967 -0.29675317 0.17007726
0.51329714 -1.3967674 3.3104026 4.5782914 -0.24269176 -0.48057449 0.10876616
0.51856959 -1.3751215 3.2591007 17.333559 0.0075568291 -2.7260513 0.015063373
0.52704269 -1.3633386 3.231214 0.93859577 -0.21155323 0.27360928 0.0049338504
0.53625178 -1.3529891 3.2066457 0.95079541 -0.051548548 0.31318572 0.0061869421
0.56153512 -1.3821661 3.2717488 -0.43276915 0.54654503 0.71693754 0.0088449093
0.57448244 -1.3859009 3.2875919 0.70685756 -0.23192213 -0.66825485 0.010257613
0.59914887 -1.40909 3.3396077 0.9842853 4.4009875e-07 -0.17658553 3.4037958e-14
0.60590446 -1.3929889 3.3029556 0.19538775 0.15477395 0.97290766 0.049849626
0.61915916 -1.3940079 3.3022664 0.12308965 0.39033222 0.92943442 0.025430717
0.62530953 -1.3733486 3.2549436 0.1680049 -0.33868757 1.0024227 0.090045147
0.64287198 -1.3864614 3.2859769 2.2467937 0.10188077 -0.42502263 0.030331066
0.65147668 -1.3745874 3.2592504 7.7715192 -0.13568027 -3.4282396 0.1208998
0.67718631 -1.4022858 3.3234816 -1.1366737 -0.0039726575 0.28362852 0.0011538971
0.69473219 -1.4107264 3.3414705 -0.20530547 0.070496678 1.0235652 0.11463215
0.7161088 -1.4260746 3.3798621 0.97828388 1.7071147e-17 -0.20726955 0
0.71713495 -1.406213 3.3308017 0.66306239 -0.1234917 0.73899692 0.10497928
0.72947538 -1.3979479 3.3134925 1.0261284 0.096896172 0.071135938 0.03190551
0.72385132 -1.362826 3.2327983 -1.3553356 -0.83713996 1.1951818 0.16938077
0.73887348 -1.3667427 3.2400143 0.035146631 -0.70558834 0.77933729 0.14743976
0.74987632 -1.363304 3.2279189 1.0198259 -0.59502208 0.48548582 0.12152901
0.77221227 -1.3792777 3.2689512 0.97321421 1.9513381e-07 -0.22990021 4.5687293e-15
0.80024272 -1.4045321 3.3319933 0.28982827 -0.94164437 0.17118829 0.0025260746
0.80465287 -1.3894768 3.2931235 -2.0333619 13.083595 -3.0292027 0.17986426
0.82512826 -1.3999082 3.3173757 1.0777313 -0.93477762 0.4038375 0.21756081
0.82452738 -1.3770341 3.2625177 0.66149694 -0.52672422 0.55086601 0.065051816
0.83356106 -1.3727021 3.2552629 0.75590104 -0.58281481 0.32489362 0.065051816
0.87402529 -1.4117451 3.3469396 -0.97116548 -0.20734943 0.47288948 0.05421463
0.89185596 -1.4166503 3.3596261 -0.44642282 -0.73349053 0.58415747 0.043101169
0.90438908 -1.4190667 3.3644519 0.96583164 -1.4992092 0.21362638 0.012314489
0.93650049 -1.4487107 3.4335105 0.9647575 6.7962782e-07 -0.2631405 1.5331008e-13
0.96001387 -1.4633106 3.4681129 0.96376687 -5.6395115e-06 -0.26674601 2.1166222e-12
-2.8882856 -1.9538288 4.6992888 -0.33272249 -0.75601667 -0.56367946 0.12888999
-2.8707728 -1.9601489 4.6907625 0.14511727 -0.14511818 0.97871429 0
-2.822129 -1.9385437 4.6414437 0.093568549 -0.93575716 0.34000507 0.0014888195
0.18241741 -1.3369595 3.2184873 0.76682103 0.39554191 0.52752173 0.21540275
0.18491727 -1.3355432 3.1952524 2.2363067 0.5557161 1.0126283 0.10607497
0.19874391 -1.3463378 3.2177317 0.24875492 -0.0044392194 0.99647397 0.15085934
0.21083438 -1.3422567 3.2108719 0.52104491 -0.0026439023 0.87819386 0.043381423
0.22193567 -1.3281614 3.1783757 0.99757099 -2.3337408e-08 -0.069657281 0
0.23719962 -1.3411486 3.2097368 0.27919048 -0.066941924 0.96213138 0.014137478
0.24957179 -1.3393579 3.204957 0.54742414 -0.078718528 0.83869588 0.016619384
0.26116094 -1.3326396 3.1888597 1.1014041 0.011653791 0.13690419 0.00442607
0.28196132 -1.3683771 3.2744675 1.3900259 0.032090452 0.0074205394 0.0033932396
0.29654849 -1.3760978 3.2932956 1.0678267 -0.025401738 -0.24866058 0.0037401651
0.30588189 -1.3572203 3.2479155 2.3759542 0.0030626503 -0.19351462 0.015533873
0.31460083 -1.3382691 3.2026172 -3.8002653 -0.015738107 0.20340277 0.15615036
0.32551923 -1.3489316 3.2169981 1.2349643 0.28057125 0.21089537 0.23554212
0.34025103 -1.3367167 3.2058952 0.092940204 0.32051417 0.9594152 0.12194318
0.35393149 -1.3377641 3.1998153 -0.24864215 0.089792758 0.96885031 0.091957688
0.36912283 -1.3423363 3.2097909 -0.60333514 0.056902345 0.80067581 0.10330916
0.3874214 -1.3565755 3.2496035 4.2065344 -1.5266837 -3.7166383 0.19483495
0.39992312 -1.3642168 3.2649488 0.82347161 -0.10568234 -0.56196022 0.031774759
0.40929523 -1.3507921 3.2325039 2.3524053 0.013481661 -0.36376998 0.029624682
0.41951883 -1.3379086 3.2018406 0.71630245 -0.20262548 0.72744638 0.046240114
0.43020651 -1.3348228 3.1941974 0.69869792 0.065955982 0.75099528 0.05525462
0.4520447 -1.3607228 3.2562971 0.99050105 6.7408462e-07 -0.13750532 4.2340589e-14
0.4726364 -1.3788221 3.2993672 0.70465028 0.1514584 -0.6984399 0.038909812
0.48778138 -1.3843936 3.3129675 -0.50793135 -0.30160421 0.82616538 0.045947168
0.49531364 -1.3707454 3.280282 1.8859488 0.60639453 -1.4291475 0.091972791
0.51397133 -1.3851491 3.3147507 4.19032 -0.038194973 -0.53668457 0.093691006
0.51934165 -1.3620371 3.2597871 0.55610609 -0.21288922 0.8495664 0.099136963
0.52894419 -1.3533995 3.2383916 1.1618021 -0.17742579 -0.25450686 0.1745193
0.53647906 -1.3405426 3.2080045 1.0937809 -0.0045191855 -0.14157173 0.0002109229
0.55727625 -1.3585252 3.2547545 -0.009356617 0.63327605 0.77386945 0.00408174
0.57147002 -1.3618459 3.2591648 -0.10118403 0.59888697 0.79441565 0.0033087255
0.6049639 -1.3779097 3.2974262 0.45960298 0.46768999 0.78083688 0.025838228
0.61721802 -1.3744282 3.2908945 0.21970716 0.57906669 0.78648239 0.0074989451
0.62505567 -1.3588632 3.25669 0.62461549 0.072936729 0.81669748 0.16916853
0.63787633 -1.3726571 3.2706082 0.39535028 0.60776818 0.73304373 0.22860582
0.64973354 -1.3584449 3.2550371 1.833104 -0.13112153 0.86277044 0.11598853
0.68162304 -1.3908973 3.3202059 0.75184274 -0.35583928 -0.55507743 0.03052403
0.69291562 -1.3956599 3.3404038 -0.32437295 -0.95786512 0.6828053 0.13878897
0.71419579 -1.4085844 3.3708329 0.9782806 -8.2707802e-06 -0.20728488 0
0.71813554 -1.3912841 3.3289049 0.81722444 0.084414028 0.58439595 0.095033221
0.72561044 -1.3847563 3.3118718 1.0498272 0.22009107 0.064491875 0.038751539
0.72800869 -1.3540418 3.2374098 -0.4790208 -0.11496425 0.87170929 0.11450715
0.74014562 -1.3558139 3.2441249 -0.069844626 -0.057221923 1.0640739 0.11684716
0.75190699 -1.3540229 3.2375419 1.0115317 -1.0954019 0.65192193 0.16087645
0.77623421 -1.3731252 3.2859769 0.97321397 1.5654466e-07 -0.22990109 1.6526266e-13
0.80337471 -1.3972316 3.3471613 0.45121706 -0.74762809 0.48729393 0.007699375
0.80735469 -1.3847654 3.313411 1.7792138 -0.76450551 0.080645308 0.10886103
0.8277393 -1.392465 3.3322582 -32.29364 -2.0680096 10.055313 0.20153542
0.82608581 -1.3675331 3.2728872 1.5473154 -0.32517174 -0.057566177 0.011552848
0.83677286 -1.363844 3.2649269 -0.097273774 -0.70820308 1.0647355 0.011552848
0.87228322 -1.4009426 3.3521729 0.90191233 0.1968371 -0.44691655 0.013629627
0.89109552 -1.4093033 3.3717396 0.57855052 0.5764395 -0.58785737 0.016129922
0.90832293 -1.4131919 3.3816042 0.29405537 0.94742632 -0.54007703 0.018095193
0.93905574 -1.4386905 3.442879 0.96475762 3.3183497e-07 -0.26314011 1.5901729e-13
0.96089423 -1.4505641 3.4712934 0.96375614 2.4143917e-06 -0.26678473 3.4508173e-12
-2.9046052 -1.9467463 4.7072501 0.05003918 -0.50527275 0.86150771 0.058732815
-2.8723969 -1.9425106 4.6945353 0.17299575 -0.21757744 0.96058971 0.0010835582
-2.83567 -1.9281286 4.6635599 -0.099342741 -0.87667716 0.47071028 0.0057287915
-2.8170176 -1.9291356 4.6641145 0.020367624 -0.88508123 0.46499071 0.0045441259
0.14381404 -1.3086691 3.1624439 0.99896765 1.7191651e-22 -0.045427077 0
0.17069085 -1.3221722 3.1937387 0.44195381 0.22978325 0.87948543 0.080919482
0.18400961 -1.3208069 3.1917751 -1.853159 0.1637789 0.27300444 0.032143697
0.19895479 -1.33171 3.2173793 0.29671514 -0.1996851 1.0615149 0.12118056
0.21124469 -1.3280823 3.2099857 0.44918832 0.010183932 0.91367018 0.023794074
0.2216565 -1.3136075 3.1743777 0.99757099 -1.2318773e-07 -0.069657549 0
0.23716296 -1.3275521 3.2090299 0.25254402 -0.037295789 0.97429633 0.0083003612
0.25048637 -1.3252282 3.203485 0.61842209 0.0057302439 0.7927013 0.013365101
0.26192161 -1.317966 3.1855447 0.88352883 0.07055746 0.47151676 0.0030226645
0.28168151 -1.3550998 3.2747223 0.52023816 0.14917658 -0.91330975 0.011493756
0.29620612 -1.3615921 3.2904692 0.855802 0.072577894 -0.51460838 0.014102971
0.30575073 -1.3434622 3.2465227 0.9955945 -6.2948587e-08 -0.093763299 9.2184967e-14
0.31461945 -1.3240244 3.2027321 -2.7671661 -0.065953717 1.2752033 0.10389486
0.33228701 -1.3315815 3.2117467 -0.19439906 -0.13695671 0.97997928 0.16990177
0.3398079 -1.3256576 3.2062986 -0.026289832 -0.31682697 0.95039886 0.10285915
0.35059291 -1.3256055 3.2022839 -0.36293736 -0.27792802 0.92667031 0.064285256
0.36497316 -1.3285388 3.2108841 -0.55586857 -0.31836984 0.77051914 0.053137526
0.39095932 -1.3468671 3.2546709 -0.24294844 -0.63163352 1.2403491 0.11610918
0.39458653 -1.3480211 3.2635171 0.90265375 -0.012991796 -0.63338089 0.11843984
0.40894267 -1.3360215 3.2285404 1.0293757 -0.059595391 0.0011943134 0.0039977026
0.42073727 -1.3237509 3.2012043 0.69953793 -0.11133761 0.70942831 0.041263051
0.43118671 -1.3192526 3.1889195 0.98619962 0.029173816 0.3529532 0.040973507
0.45146215 -1.3457705 3.2521009 0.99049979 -1.2180227e-06 -0.13751419 0
0.47432542 -1.3630785 3.2987287 0.43730247 0.50591141 0.91324782 0.079074964
0.4852584 -1.3678451 3.3055995 -0.39605337 -0.36232716 0.85261267 0.22552834
0.49275169 -1.3504112 3.263315 2.0772693 0.027336331 -0.10945515 0.084578663
0.51284599 -1.3687032 3.307524 -2.5215433 -0.28605673 0.49601406 0.053435627
0.51874918 -1.3497349 3.2614982 0.44255644 -0.14955045 0.89267111 0.092304707
0.52906156 -1.3379368 3.2317257 -2.9401743 -0.024448911 -0.55387414 0.19750273
0.53625178 -1.3269606 3.2066457 1.1670417 0.0090329507 -0.2625733 0.0039832536
0.55635285 -1.3428667 3.2418952 -0.19467242 0.29558468 0.95098811 0.086053215
0.56819093 -1.3400679 3.2383366 0.55604529 1.2481515 1.8246419 0.08340954
0.59803641 -1.3681318 3.3093841 0.96215647 0.25578904 0.093951449 0.025613997
0.60025805 -1.3539126 3.2717764 -0.02980916 1.3340445 1.3928257 0.12291913
0.60992754 -1.3546716 3.2672901 0.61108971 0.083596028 0.83969557 0.14631413
0.62189728 -1.3401304 3.2345223 1.0759841 0.93154091 1.8618449 0.1979052
0.63638169 -1.352789 3.2585471 0.43071985 0.26581675 0.86782217 0.12387898
0.64510906 -1.3302478 3.2317474 -0.056520723 -0.87155658 -0.48702618 0.096286632
0.66517901 -1.353802 3.2810171 -0.51800942 0.48422995 0.70511532 0.01591987
0.68761528 -1.3690304 3.309304 -0.092417806 0.60655397 0.78965259 0.00012935678
0.71198243 -1.3886153 3.3559062 1.1379763 -0.84826404 -2.4194181 0.12402968
0.71575761 -1.3716539 3.3170247 0.63025182 0.13076948 1.0001864 0.14654365
0.72635716 -1.3663121 3.3017404 2.0012302 0.44770598 -0.72472131 0.052613627
0.72242916 -1.3343074 3.2243998 1.632082 -0.092722356 2.3196549 0.046239417
0.73532176 -1.3384137 3.2356813 -0.50677466 -0.05216556 0.87444818 0.11312953
0.75216818 -1.340782 3.2403107 0.013484346 -0.37331292 0.93650043 0.095963188
0.77421802 -1.3562571 3.277442 0.97321403 -1.8751e-07 -0.22990103 1.5714523e-13
0.8062554 -1.388965 3.3568399 0.58459097 -0.46005318 0.66828471 0.015749557
0.81100261 -1.3735001 3.3191104 0.92230719 0.15534997 -0.42632648 0.011738875
0.82910341 -1.3821527 3.3408988 1.5787078 0.47084248 -0.79221356 0.17469834
0.8279798 -1.3565283 3.2770784 1.4247576 -0.29603383 0.07823164 0.0078945691
0.83905125 -1.3533746 3.2704277 0.84537029 -0.30825278 0.43936798 0.039506335
0.87641209 -1.3918053 3.3633456 1.0669465 0.11433811 -0.32234555 0.0068153953
0.89709431 -1.4006432 3.3851457 0.67099088 0.4010905 -0.63811034 0.031482723
0.91263211 -1.4055423 3.3965414 -0.23069915 -0.91529411 0.90472436 0.051167987
0.941625 -1.4286155 3.4522986 -0.69441229 2.9275517 -2.9419074 0.042110007
0.96123362 -1.4371463 3.4729769 0.74035412 0.084430121 -0.66689378 8.4321859e-05
-2.9233379 -1.9316483 4.714129 -0 -0 1 0
-2.906188 -1.9337448 4.7187219 -0.36551598 -0.38653156 0.84675348 0.034591381
-2.8761189 -1.9256531 4.6994977 0.2667754 -0.2667754 0.92610031 0
-2.844759 -1.918817 4.6801362 -0.041332718 -0.83824891 0.54371899 0.0033950412
-2.8273935 -1.9179606 4.681663 -0.071848035 -0.80737221 0.58565181 0.0023179089
0.14387414 -1.2963758 3.1637654 0.99896765 -4.0289063e-20 -0.045427077 0
0.15985399 -1.3223475 3.2271488 0.89168584 0.33438388 0.3050963 0
0.17098691 -1.3063877 3.1890917 0.44980484 0.13078681 0.98443466 0.099225551
0.18463141 -1.309967 3.19678 -0.5180704 -0.1478107 0.85361141 0.12225222
0.19838899 -1.3200809 3.2212248 0.97188342 -0.040724825 0.44909382 0.0048776604
0.21092324 -1.3155584 3.209887 0.47783947 -0.041156832 0.90276074 0.030659089
0.22193567 -1.3023623 3.1783757 0.99757093 -7.0415446e-08 -0.06965781 0
0.23715161 -1.3161241 3.2106717 0.2967774 -0.035239272 0.97038001 0.01372344
0.24862972 -1.3139461 3.2053347 0.59467369 -0.015465474 0.81930739 0.013121002
0.26057947 -1.3062309 3.1872215 0.89257592 0.033550948 0.45869198 0.0023853329
0.28235766 -1.3434745 3.2787223 2.4762826 -0.71717024 1.1384544 0.0071133021
0.29722071 -1.3511277 3.2973931 1.0322354 0.077518538 -0.22707209 0.0050052907
0.30667126 -1.3342912 3.2562971 0.99559468 -5.9619197e-07 -0.093761779 4.7285065e-14
0.31801718 -1.3144121 3.2037902 -0.28494483 -0.071424231 1.0147444 0.15617152
0.33013684 -1.322685 3.2295105 -4.9606552 0.70183706 0.24354789 0.11431094
0.34184811 -1.3164366 3.2128797 0.15502739 -0.35151088 0.92327952 0.13366334
0.35596001 -1.3159164 3.2126768 -0.46054184 -0.39929411 0.88065135 0.14207809
0.36915681 -1.3211399 3.2242219 -3.8488307 0.16670281 -0.033059441 0.051758692
0.38829613 -1.3353806 3.2592213 0.82087147 0.25761104 -0.51252425 0.01276553
0.40194774 -1.3435371 3.2788613 1.3115268 -0.13983414 0.034420598 0.015434272
0.41098475 -1.3291907 3.243844 2.3378241 -0.9485603 -2.3947051 0.087027363
0.4182409 -1.315632 3.2098897 0.91120321 -0.081342034 0.42500636 0.02909798
0.42792228 -1.3110732 3.1972649 0.8405503 -0.0088182809 0.54915947 0.031388089
0.4752152 -1.3550955 3.305584 0.82623547 0.17400557 -0.5504849 0.024721786
0.48836845 -1.358237 3.3171968 -0.43479791 -0.49035561 0.82749963 0.10057183
0.49382246 -1.3438759 3.2788632 0.71944016 -0.11737733 0.68456441 0.15240087
0.51442236 -1.3594639 3.3177342 -7.7644434 0.031903252 1.1403775 0.036245696
0.5192402 -1.3371669 3.263315 -12.345405 -0.00151191 1.9702295 0.0052125407
0.53430837 -1.3257049 3.2332926 0.97812027 -0.1996516 0.073838376 0.11042362
0.53647906 -1.3145031 3.2080045 1.0164591 -0.087444037 0.084308401 0.019919692
0.55490768 -1.3274378 3.2395723 0.24269713 -0.44028145 0.96197313 0.083473466
0.56684196 -1.3246059 3.2326605 0.61456263 -0.11075085 0.92092729 0.1172215
0.59496403 -1.3523114 3.3021159 0.96507239 0.22214766 0.13887277 0.048741553
0.59896386 -1.3377435 3.2647221 -0.25447389 -0.35275519 0.90852064 0.12291913
0.6135807 -1.3401884 3.2688396 0.19366312 -0.46934086 0.87862021 0.10595124
0.61871219 -1.3235192 3.2298772 0.82598078 0.84106922 -0.33019504 0.20348336
0.63737267 -1.333837 3.2478845 -0.26629904 0.13535549 0.9659248 0.18803111
0.64393115 -1.3153493 3.2193339 0.34292758 0.21533209 0.91434824 0.063986585
0.6598022 -1.3343343 3.2593837 -0.46160489 -0.17578152 0.86949515 0.10211151
0.68476886 -1.3500181 3.2944698 0.72531265 -0.34351543 -0.59658921 1.8898992e-05
0.71149039 -1.3732389 3.3518548 0.95779181 0.024271807 0.28643629 0.0016945091
0.71634954 -1.3605757 3.320219 0.20190854 -0.67413437 1.6959778 0.039445609
0.72839385 -1.3570471 3.3117626 1.1133581 -0.11444288 -0.025652047 0.029552888
0.72273695 -1.321784 3.2257736 -0.84299588 -0.059505865 0.6129846 0.0085801752
0.73912984 -1.3274125 3.239341 -0.51605773 -0.32104221 0.82543623 0.056916438
0.75417829 -1.3294891 3.2436574 0.4083648 -0.62816358 1.2515571 0.079334639
0.77893889 -1.3511442 3.2974262 0.97321421 -3.5962239e-07 -0.22990011 5.2179794e-13
0.80887961 -1.3793807 3.3663366 -4327.9912 -0.043048751 1039.9536 0.013401073
0.81385702 -1.3648162 3.3307922 1.008646 0.42665222 -0.19076616 0.0048676976
0.83397943 -1.3757105 3.3573794 3.5480194 0.022533428 -0.73644179 0.039291654
0.82929283 -1.3462175 3.2857177 1.7678647 -0.093906656 -0.29324326 0.01314281
0.83957666 -1.3421582 3.2756472 0.95710909 -0.21150848 0.26544577 0.034549862
0.87602288 -1.3775431 3.3618519 0.96768594 -3.7995966e-07 -0.25215852 2.4754391e-12
0.89546406 -1.387502 3.3864377 0.51896918 0.11675322 -0.90035796 0.022532875
0.91427279 -1.3942595 3.4026475 -0.20726009 -0.12318327 1.1318303 0.051167987
0.94406086 -1.4143149 3.4455359 -0.65966904 0.2001906 0.72440356 0.038685892
0.9547655 -1.4133153 3.4491529 6.3750582e-18 0.20138654 0.97951186 0
-2.947495 -1.926697 4.7517881 0.18022351 -0.85504806 0.48622248 0.007931334
-2.922576 -1.9240115 4.7434359 0.3065528 -0.86111337 0.40559724 0.00023802894
-2.8958921 -1.9196879 4.7318068 0.33822525 -0.84557778 0.41303989 0
-2.8538189 -1.9142829 4.7008629 0.38133356 -0.91025686 0.1612982 0.065839335
-2.848582 -1.9137075 4.7170658 -6.2785184e-06 -0.92664486 -0.37593791 0
-2.8453932 -1.924499 4.7436657 -0.61601663 -0.75291532 -0.23160748 0
0.14381404 -1.2829994 3.1624439 0.99896759 -2.8606749e-08 -0.045429017 0
0.15764786 -1.3012587 3.2054617 1.2400067 -0.043790378 0.20988442 0.12505107
0.17090224 -1.2937828 3.1899371 0.23724969 -0.10534608 0.99633813 0.079709932
0.18442576 -1.2976213 3.1984584 -0.40429193 -0.1986381 0.89286649 0.09252011
0.20507923 -1.3058435 3.2154744 1.0835401 0.093545511 -0.32006177 0.1488605
0.21141942 -1.3026266 3.2136822 0.16309439 -0.1250782 0.98232788 0.097964197
0.22174948 -1.2883811 3.1757092 0.99757093 -1.4715201e-07 -0.069658354 0
0.23728299 -1.3026279 3.2111156 0.35553762 -0.097714394 0.95351291 0.02066591
0.24998397 -1.2992969 3.2028701 0.71714318 -0.051763583 0.70161146 0.013495165
0.26106566 -1.2916318 3.1837175 1.3631456 0.013270549 -0.27082473 0.0016048291
0.28292188 -1.3330778 3.2858999 1.0738655 0.060729824 -0.18868901 0.0038443329
0.29794803 -1.3425331 3.309113 1.3351648 -0.18263316 0.05172535 0.0053243204
0.30680323 -1.3216439 3.2576983 0.99559456 -3.5679477e-08 -0.093762852 1.4041023e-14
0.31501222 -1.300356 3.2047524 -2.8055487 -0.021314001 0.31894085 0.13556972
0.3318634 -1.3069575 3.2151663 -0.31325266 -0.049415614 0.95006353 0.14033169
0.34036419 -1.303622 3.2130949 -0.17722718 -0.37068403 0.91229248 0.13348162
0.35718253 -1.3054372 3.2201717 -0.45390457 -0.48090258 0.76214683 0.098756775
0.36883655 -1.3101878 3.2290392 0.56448168 0.53298002 -0.69371271 0.058963697
0.38548684 -1.3231788 3.2612026 0.7727288 0.31339985 -0.55196983 0.0091337273
0.40107515 -1.3306324 3.2793529 0.89454216 0.28891572 -0.37132037 0.010961127
0.41045544 -1.3148546 3.2409635 0.99207562 -3.5466033e-07 -0.12564206 6.8269891e-13
0.42080897 -1.3004371 3.2065339 0.87959141 0.0042117452 0.48436052 0.030550782
0.42977241 -1.2943609 3.1903245 1.2598698 0.007485549 -0.17038977 0.02048808
0.45126832 -1.3188065 3.2507045 0.99050182 -2.0623884e-07 -0.13749966 0
0.47080225 -1.3366168 3.294662 1.2875874 -0.30756202 0.26716393 0.051966909
0.48811233 -1.3484745 3.3228781 0.63886672 -0.77400661 0.66984379 0.16348666
0.49697697 -1.3365119 3.2924004 -0.04609523 -0.83438754 0.54924738 0.01069565
0.51474661 -1.347986 3.3226898 -0.92676526 -0.30721754 0.58651716 0.1083032
0.51991707 -1.3251022 3.2662132 1.1837891 -0.011514362 -0.30652246 0.0047361888
0.53138381 -1.315729 3.243356 0.87805432 -0.21639286 0.44079179 0.13025777
0.5377444 -1.3047696 3.2161567 1.15297 0.059571929 -0.25878254 0.0082026888
0.55719334 -1.3207043 3.2561455 0.65692317 -0.75783569 0.27957836 0.064578898
0.56804073 -1.3165408 3.2472489 0.57385182 -0.8397032 0.26682228 0.099624142
0.59494984 -1.3453791 3.3162026 0.98428488 1.0157611e-06 -0.17658785 5.9178248e-13
0.60144281 -1.3286867 3.2763431 -0.95035684 -0.52867436 0.74769378 0.075342029
0.6151129 -1.3295897 3.2779381 0.26421246 -0.67779529 0.84700114 0.068220966
0.62027448 -1.3131335 3.2366652 1.0491282 0.049284395 -0.33301452 0.0095925061
0.63540828 -1.31978 3.2535574 -0.41531169 -0.1472934 0.90686423 0.053210065
0.64172482 -1.3036929 3.2134511 0.98063624 1.3797772e-18 -0.195838 0
0.66292667 -1.3199401 3.2534983 -0.57454258 -0.31222242 0.86184472 0.07279285
0.68140191 -1.3302298 3.2788613 1.051121 0.28698376 -0.22011149 0.081130013
0.71103001 -1.3614807 3.3558912 0.97828293 2.3993013e-07 -0.20727393 3.632499e-13
0.71812183 -1.349476 3.3263347 0.8218444 -0.33979473 0.49009904 0.011350534
0.72807413 -1.3418748 3.3076875 1.3654985 -0.033903256 -0.73269576 0.010905396
0.72335339 -1.3098084 3.2285249 -1.3802154 0.049219087 0.10893407 0.0060440106
0.74139559 -1.3188975 3.2507932 0.38592055 1.0304288 -0.39232236 0.052717824
0.75410223 -1.3196727 3.2512901 -0.37767941 -0.758102 0.5516476 0.039676841
0.77893889 -1.3377615 3.2974262 0.97321421 -4.3523303e-07 -0.22990011 5.2281074e-13
0.80888039 -1.3657191 3.366339 14.04561 -0.0031860587 -3.3644845 0.016557578
0.81278425 -1.3495169 3.3264019 0.97142082 1.4155519e-06 -0.23736382 7.8397049e-13
0.83434582 -1.3626833 3.3588607 6.8553534 0.019244738 -1.7361554 0.022143247
0.83327723 -1.336073 3.2922316 0.71393555 -0.69428706 0.65203738 0.026289294
0.8378244 -1.3250649 3.2661307 1.1650933 -0.47994617 -0.79444653 0.026133073
0.8744697 -1.3614807 3.3558912 0.96768576 1.0855953e-06 -0.25215933 2.2657414e-12
0.89594746 -1.3731573 3.3838046 -0.68974853 0.043478616 0.77313638 0.055982199
0.9122287 -1.3773558 3.3950083 -0.63094079 0.30894935 0.75385088 0.0066370117
0.93565184 -1.3917084 3.4303992 0.63534498 0.58646232 0.50239295 0
0.94134766 -1.3780167 3.4154727 0.33204392 -0.69026196 -0.64287269 0.051002428
-2.953054 -1.9121029 4.7629871 -0.52577984 -0.3929745 0.75440478 0.10865794
-2.9389756 -1.9160516 4.7705674 0.12987062 -0.99966407 0.60883284 0.085518472
-2.9197476 -1.9088036 4.7569776 0.69402319 -0.44684851 0.56449819 0.055550937
-2.8730967 -1.898111 4.7258992 -4.3864858e-18 -0.16178587 0.98682588 0
0.14381404 -1.2701645 3.1624439 0.99896759 -1.2767516e-07 -0.045428559 7.4295496e-15
0.15890983 -1.286487 3.2034156 1.6342822 -0.10063928 0.78011328 0.083322987
0.17121083 -1.2830533 3.1945443 0.01748028 -0.29347381 0.96374583 0.071993165
0.18470274 -1.2862502 3.2024498 -0.44932956 -0.25263003 0.85777372 0.097215727
0.19901472 -1.2954465 3.2239895 -0.25030613 -0.085514359 1.0032496 0.15292121
0.21155588 -1.2909423 3.2162147 0.13573995 -0.20466964 0.97152591 0.077981502
0.22174948 -1.2754924 3.1757092 0.99757087 -1.7079958e-07 -0.069658421 0
0.23741286 -1.2901732 3.2126229 0.37876305 -0.14712834 0.94079196 0.023969028
0.25018823 -1.2868333 3.2043004 0.72755337 -0.05129965 0.69074106 0.012610433
0.26121309 -1.2792481 3.1850781 0.82806134 0.024522571 0.56895161 0.0036181798
0.28424713 -1.3237438 3.2956328 0.81600332 0.15354006 -0.56487858 0.012867907
0.30019906 -1.3314511 3.3153024 0.79814637 0.27845612 -0.53425139 0.0093989735
0.30719978 -1.3101137 3.261909 0.99559456 -1.9751716e-09 -0.093762875 0
0.31500748 -1.2868855 3.2051842 -0.038757876 -0.074419536 1.0263112 0.10114123
0.33036083 -1.2912289 3.2154675 -0.22700484 -0.36273456 0.906865 0.15067476
0.33894283 -1.2926639 3.2104325 -0.1105159 -0.49471512 0.88034904 0.1141063
0.35298917 -1.29316 3.2190869 -0.55970097 -0.39332601 0.7303524 0.10646016
0.36574596 -1.2975929 3.2298458 0.62513334 0.58591694 -0.60743433 0.069020458
0.38638076 -1.3141656 3.2712145 0.75876325 0.39769104 -0.51586837 0.019073652
0.40387174 -1.3232262 3.2945564 1.0927159 0.024570415 -0.16160862 0.0073217778
0.41080719 -1.3028165 3.2437408 0.99207562 -3.2808191e-07 -0.12564196 6.9074331e-13
0.41883093 -1.286827 3.2039614 0.78350627 -0.12546553 0.68382549 0.022347964
0.42922896 -1.2792486 3.1850612 1.4236517 0.11468725 -0.35849085 0.012721076
0.45107463 -1.3050531 3.2493093 0.99050158 2.7604289e-18 -0.13750149 0
0.4714469 -1.3250999 3.2986667 4.0607724 -0.49491531 0.4896301 0.10153831
0.48995218 -1.3383458 3.3351274 0.1416731 -0.61479789 0.77585584 0.028393487
0.49889764 -1.3284094 3.3083544 -0.50981385 -0.0073662852 0.86100715 0.13711639
0.51469141 -1.3379213 3.3283165 -1.0111569 -0.44987309 1.9774427 0.11841416
0.52081156 -1.3146449 3.273191 1.2742383 -0.0010777074 -0.31946263 0.0024224694
0.53060204 -1.3066986 3.2533872 0.91116649 -0.16475071 0.38057482 0.029872397
0.53964072 -1.298195 3.2324271 0.96897089 -0.10326521 0.23474902 0.020439852
0.56187916 -1.317493 3.280282 0.59275752 -2.0528421 0.65253717 0.12304099
0.57408208 -1.3116653 3.2649515 0.76958084 -0.85289413 0.36137086 0.092781134
0.59704196 -1.3366039 3.3278642 0.9842847 1.7870481e-06 -0.17658903 7.8735689e-13
0.60412824 -1.3229052 3.29301 -15.030533 -0.63454741 3.2610888 0.071417823
0.6168626 -1.3212101 3.2898967 -1.9651706 -0.76420242 1.4833094 0.0583583
0.62236875 -1.3032117 3.244452 -0.40918103 -0.38974902 0.9229582 0.015668144
0.6384033 -1.3086957 3.2572768 -0.23885129 -0.066177018 0.98728931 0.041101459
0.6433633 -1.2939463 3.2216556 0.9806363 -6.5644389e-07 -0.19583781 3.9738051e-13
0.6676892 -1.3164344 3.2775128 1.0165482 0.19699326 -0.34740296 0.020939942
0.68122184 -1.32136 3.2874169 0.61309916 0.58381844 -0.53222692 0.036043432
0.71040338 -1.3466674 3.3529193 1.0333285 -0.033749063 -0.071827941 0.0046021882
0.71912444 -1.3377612 3.3307559 0.95062059 -0.19230628 0.25421658 0.011382485
0.72730875 -1.3278488 3.3060658 1.2867184 -0.021649236 -0.70377636 0.0077028158
0.72579014 -1.3011602 3.2396066 1.1054887 0.023315659 -0.26992142 0.0026267914
0.74632251 -1.3140769 3.2717764 22.339087 -1.7081153 -4.4168639 0.050594889
0.7609151 -1.3163475 3.2774398 5.495049 -0.12868957 -1.2065685 0.03469871
0.78337437 -1.3319203 3.3162026 0.97321463 -5.073656e-07 -0.22989836 2.5268286e-13
0.81068194 -1.3550686 3.3738372 13.594893 0.01103258 -3.2764623 0.015649162
0.81529176 -1.3401383 3.336664 0.971421 1.5185407e-06 -0.23736306 7.0612472e-13
0.83583218 -1.3514538 3.3648374 -16.478868 0.0028036893 4.1029687 0.020657634
0.83432001 -1.3272809 3.30463 1.2064431 0.065539218 -0.48264876 0.002528636
0.84133571 -1.3179746 3.2816157 1.0480925 -0.065673403 -0.147808 0.014383459
0.87563413 -1.3496555 3.3603599 0.9676857 1.2072843e-06 -0.25215954 1.1251085e-12
0.89909935 -1.3587035 3.3793459 17.627829 1.3198366 17.792959 0.084429763
0.90612781 -1.354465 3.3723345 -2.4333439 2.6807067 2.4620497 0.050560877
0.92881751 -1.3711573 3.3963761 0.16266102 -0.72457683 -0.66972369 0.046387929
0.93625164 -1.3568107 3.3804893 -0.58538884 -0.59493822 -0.55078888 0.0041191163
0.96516812 -1.3785017 3.4284828 -0.63275403 0.2708661 0.72543359 0.0047547724
0.98097479 -1.3827984 3.442879 -0.4735935 0.35520005 0.80594176 0
-2.9561086 -1.8956668 4.7718005 -0.19896424 -0.18149452 0.963054 0.055478111
-2.9426839 -1.8990834 4.776587 0.73139268 -1.1152825 1.0592955 0.037380252
-2.9086173 -1.8895463 4.7525992 0.8909387 -0.33410686 -0.30757242 0
-2.8748913 -1.8801044 4.7288513 -4.3864858e-18 -0.16178587 0.98682588 0
-2.8589015 -1.8791028 4.7335992 -0.55080146 0.17227685 0.81666303 0.065118402
-2.847177 -1.8871769 4.7466402 -0.70593041 -0.70594168 0.057520535 0
-2.8493497 -1.9014827 4.7826219 0.91483796 0.1524802 -0.37392691 0
-2.7699585 -1.9002823 4.7796025 0.97580743 -1.8726918e-19 -0.2186318 0
0.14429624 -1.2615453 3.1730473 0.99896759 -9.247043e-08 -0.045428541 8.4773327e-15
0.15910821 -1.2748747 3.2066936 1.33067 -0.23758624 0.6852513 0.071106069
0.17137931 -1.2723813 3.1998065 0.0087615056 -0.30178595 0.96175671 0.070275255
0.18503597 -1.2747848 3.2063062 -0.44086283 -0.27736878 0.85405189 0.074236877
0.19902077 -1.2825216 3.2258489 0.96052128 -0.20751677 1.6331719 0.12570201
0.21177903 -1.27941 3.2193303 0.12533991 -0.14029038 0.98373282 0.066611491
0.22212218 -1.2647257 3.1810465 0.99757087 -3.9316292e-18 -0.069659173 0
0.2373763 -1.2791058 3.2162724 0.41259158 -0.10568438 0.9176054 0.025862411
0.24899751 -1.2759949 3.2083473 0.69456869 0.003307431 0.72424847 0.016861111
0.26077452 -1.266878 3.1861267 0.79504025 0.062906906 0.63136172 0.0035777949
0.28533354 -1.3104 3.2948344 0.82332021 0.012457678 -0.56744045 0.017261995
0.29885417 -1.3184613 3.3162026 1.338505 -2.2743217e-13 0.043836005 0.010128826
0.307863 -1.299675 3.2689512 63.657089 -0.0006148289 -5.9932113 0.011178257
0.31574017 -1.2775033 3.2132571 -3.0944319 0.047242023 0.21741462 0.13603838
0.33403194 -1.278957 3.2259252 -0.47817582 -0.69318748 0.53939635 0.15706035
0.33866641 -1.2834496 3.220876 -0.38436806 -0.67239273 0.63737595 0.15927632
0.35909289 -1.2862428 3.2382181 -0.55891013 -0.681122 0.47560272 0.066735707
0.37157425 -1.2922835 3.2496548 -2.1409771 0.31619099 -0.037872538 0.020649677
0.39002171 -1.3061202 3.2857349 0.79942346 0.48135397 -0.35947248 0.00073261297
0.40788516 -1.3167545 3.313941 0.74189752 0.54499263 -0.39060357 0.0037202085
0.41275245 -1.2957586 3.2591007 0.99207532 2.3789612e-06 -0.12564474 4.2697524e-13
0.41957349 -1.2755269 3.208102 0.80548966 -0.37387908 0.51839858 0.032085415
0.42953169 -1.26938 3.1927369 1.1487968 -0.05928982 -0.061831009 0.014274377
0.45107463 -1.2918657 3.2493093 0.9905014 -1.9884219e-07 -0.13750245 0
0.47277668 -1.3147461 3.3069837 -0.32102889 -0.41833678 0.84966743 0.0014514842
0.49093434 -1.3283527 3.3410816 -1.4189224 0.067944087 0.77034575 0.20239562
0.50080937 -1.3194703 3.3152082 0.14663288 -0.67514884 -0.73080993 0.10424728
0.50969881 -1.3281924 3.3251598 1.6267992 0.92623436 -0.88786334 0.20920502
0.52081156 -1.3013606 3.273191 0.2391448 0.37370443 1.4409595 0.025567835
0.53114808 -1.2940848 3.2549152 0.85813469 0.18121092 0.5000506 0.016536754
0.53969961 -1.2842069 3.2297833 0.98455387 0.13697869 0.15381764 0.019933145
0.56122142 -1.3103639 3.2927697 0.85796851 0.14065637 0.49407065 0.16856052
0.57519227 -1.3041799 3.280282 0.86965388 -0.24146283 0.54436773 0.074596435
0.60020792 -1.3301136 3.3455107 0.9842844 1.4987127e-06 -0.17659061 0
0.60505819 -1.311866 3.3007278 1.2846478 -0.025195839 0.56782466 0.06337785
0.61813617 -1.3104447 3.2960572 -0.26743421 -0.40318736 1.4851146 0.054245435
0.62166369 -1.2913297 3.2486491 -0.26817772 -0.23287217 1.0572702 0.028682014
0.6371302 -1.2946353 3.2561936 -1.1439952 0.021157827 0.46873477 0.010512396
0.64172482 -1.2776091 3.2134511 0.98063636 -1.2395946e-06 -0.19583762 3.6472388e-13
0.67437559 -1.3093034 3.2959888 0.73409343 0.41966805 -0.55532676 0.025855627
0.68916208 -1.3184613 3.3162026 0.73572814 7.5620678e-18 -0.67727697 0
0.71387792 -1.3395848 3.3693328 0.97828287 5.2346883e-07 -0.20727424 2.6399594e-13
0.72018081 -1.326012 3.3351941 1.5445784 0.22175357 -0.92637706 0.017693071
0.72730875 -1.3144311 3.3060658 -10.75469 -9.8915081 36.519207 0.013438856
0.72676253 -1.2896518 3.2437408 0.97580779 -9.8662997e-07 -0.21863019 5.5352538e-13
0.75606126 -1.3046588 3.2828429 0.32427862 1.5167159 -0.83527845 0.1220495
0.75468808 -1.3036742 3.2862964 -0.55843568 -0.44691101 0.80036062 0.18712193
0.7830314 -1.3178841 3.3147507 0.97321463 -5.7369505e-07 -0.22989835 4.667782e-13
0.80996007 -1.3401814 3.3708329 -7.6059361 -0.02434884 1.706973 0.02205733
0.81673157 -1.3289392 3.3425567 1.0012014 0.23167168 -0.68495071 0.042560723
0.83693469 -1.340457 3.3708777 -0.0078641912 -0.49158034 0.87079674 0.0031993457
0.83539069 -1.3155818 3.3089581 1.1411316 0.053415127 -0.3819893 0.017533554
0.84300423 -1.3064517 3.2859919 0.99130601 -0.080749772 0.1155925 0.01000591
0.87722164 -1.3377366 3.3643003 30.560411 -13.372575 23.506399 0.1957414
0.89522868 -1.3449703 3.3828964 0.26630485 -0.15702878 1.1308194 0.12627965
0.89991236 -1.3267802 3.3520985 0.10416134 -0.98786008 -0.11525127 0.092264391
0.92026901 -1.3430898 3.3765588 0.2838732 0.0039743292 0.99336976 0.12876619
0.93225545 -1.338989 3.3678341 0.29215774 0.34588823 0.98218161 0.069264807
0.95844239 -1.3573518 3.4190152 -0.38591668 0.32902128 0.86186618 0.036453027
0.97617882 -1.3647182 3.4357271 -0.68701762 0.12357907 0.71605521 0.013116921
-2.96207 -1.8796974 4.776587 -0.65184081 -0.65184486 0.38755882 0
-2.965133 -1.8940372 4.8130264 0.86373228 0.39260349 -0.31595737 0
-2.9288416 -1.883262 4.785645 0.69881767 -0.69881624 0.15267526 0
-2.8984263 -1.8761464 4.7675633 0.1301738 -0.78104937 0.61075091 0
-2.877265 -1.8749657 4.7645631 -1.1900839e-17 -0.93053025 -0.36621511 0
-2.8597226 -1.8796029 4.7648263 -0.36041483 -0.93129355 0.052853346 0.023560178
-2.8502727 -1.8831722 4.785337 0.93925202 0.096077323 -0.32950681 0.0010266807
-2.8402605 -1.8920662 4.8026447 0.74070358 -0.53842121 -0.40182182 0.036470339
-2.8010318 -1.8828535 4.7771368 0.5972119 -0.62010992 0.50872552 0.047505569
-2.7811258 -1.8805116 4.7655931 -0.096369691 -0.97861362 0.18173683 0.028109021
-2.7742102 -1.8831753 4.7801456 0.87479675 0.47141534 -0.1117954 0.029765265
-2.7645226 -1.8904318 4.8038645 0.99207658 0.18592416 -0.065045983 0.030899934
-2.720597 -1.8747821 4.7717481 0.26449689 0.024633344 0.96407187 0.039683256
-2.7066379 -1.8773286 4.7705674 -0.13005485 532.24353 210.60359 0.034195282
-2.6817133 -1.8743201 4.7642498 0.17718752 -0.19201142 0.96526486 0.065339483
0.14478168 -1.2528682 3.183722 0.99896759 6.7483384e-08 -0.045428686 7.6825126e-15
0.15932073 -1.2642453 3.2125828 1.6348344 -0.24905363 0.36103812 0.092179112
0.17147399 -1.2601972 3.2015564 0.14788893 -0.12021528 0.982243 0.056115981
0.18439405 -1.26209 3.2080255 -0.31724843 -0.11305312 0.94188881 0.084702209
0.19843474 -1.2688962 3.2257574 0.33165294 0.022588646 1.2096002 0.10624801
0.21174654 -1.2667797 3.2202511 0.074501768 -0.018322509 0.99830514 0.0679553
0.22212218 -1.2518153 3.1810465 0.99757087 -2.2170421e-20 -0.069659173 0
0.23770945 -1.2650309 3.215374 0.41608942 0.15407322 0.90410268 0.018586867
0.25008675 -1.2607641 3.2042189 0.70652795 0.1434723 0.70167339 0.011702853
0.26086318 -1.252354 3.1823335 1.3026356 -0.084990606 -0.32647285 0.0017011425
0.28169364 -1.2880763 3.273191 1.960282 -1.9353224 -1.380645 0.17035104
0.29877561 -1.302364 3.3085306 0.77030396 -0.28603923 -0.569924 0.0055689113
0.30884889 -1.2882994 3.273927 3.0635262 -0.12057082 -1.1639707 0.12023096
0.31597438 -1.2668608 3.2192781 -0.5677653 -0.35497969 0.7464633 0.11667445
0.33904183 -1.2706175 3.2348089 -0.74120361 -0.56630284 0.4423154 0.17024961
0.33794728 -1.2746103 3.2317514 0.66306376 0.49430642 -0.56672186 0.16935317
0.35974789 -1.2781005 3.2498853 -0.49682069 -0.71141177 0.49763241 0.043794721
0.37224472 -1.2813166 3.2552683 -0.97679472 -0.37471628 0.45539188 0.0092150969
0.38972962 -1.29828 3.2977924 0.82525277 0.49493495 -0.27202448 0.0024333827
0.4074176 -1.3078668 3.3234816 1.1471943 0.10440615 -0.27454072 0.015440198
0.41569456 -1.2844903 3.2619917 0.94916075 -0.31332478 0.030355902 0.003771696
0.42156881 -1.2666709 3.2177088 0.78455609 -0.61733299 0.24874522 0.012749705
0.43067846 -1.257628 3.1958172 1.4511477 0.10742543 -0.39695561 0.022680443
0.44856066 -1.2738068 3.2451458 -0.092932798 -0.0057869847 0.99565554 0.060342487
0.46848443 -1.2903078 3.2788613 0.72188669 -0.24062878 -0.64882767 0
0.48851967 -1.3056242 3.3111801 0.28164351 0.18108447 1.0846612 0.080738597
0.49791303 -1.2976497 3.2973702 0.44598797 0.64248437 0.87514186 0.067114457
0.51287615 -1.3034136 3.3166535 -1.1048737 0.2860463 0.48280746 0.10006304
0.51901644 -1.2836366 3.261909 0.16178697 0.76195723 1.2345539 0.0094447378
0.52953267 -1.2770284 3.2451403 0.78879106 0.31701696 0.52931786 0.0049211052
0.53853273 -1.2672567 3.2202854 0.91565865 0.22791936 0.34303266 0.001026932
0.56163585 -1.2903078 3.2788613 0.54859453 1.8072009 1.2109023 0.074596435
0.57271087 -1.2852979 3.2661307 0.72397572 0.49977711 0.53990233 0.050736096
0.59941328 -1.3147929 3.3410816 0.9842847 -1.5715428e-07 -0.17658892 4.1915153e-13
0.61130095 -1.2973067 3.3009253 0.80273771 -0.24259898 0.63812989 0.099906117
0.61694515 -1.2968978 3.2979252 -0.15855706 -0.095214039 1.075937 0.063574806
0.62372202 -1.2789035 3.2483401 -0.10536193 -0.19940378 1.0160302 0.039421842
0.63723582 -1.2808241 3.2541316 -0.68132776 -0.013735047 0.76193285 0.034726664
0.64227009 -1.2656417 3.2161813 0.98063534 -2.6796754e-06 -0.19584255 2.5201831e-14
0.67130518 -1.297611 3.2977014 0.45232248 -0.59358603 -1.361168 0.080703802
0.68916208 -1.3050025 3.3162026 0.73572814 -4.1024006e-17 -0.67727697 0
0.72146374 -1.3149507 3.3419592 0.26206756 -0.4204073 0.86866468 0.014070596
0.72585273 -1.3039081 3.311579 0.55852592 -0.15603541 0.84902871 0.078839317
0.72926211 -1.2808772 3.2548971 0.97580796 -1.0569182e-06 -0.21862935 8.1973393e-13
0.75079674 -1.29878 3.2980869 0.69618958 0.059331641 0.71751803 0.1227571
0.76317352 -1.2956473 3.2934182 0.55201775 -0.44886655 0.70546496 0.067058586
0.78474933 -1.3072929 3.3220232 0.97321576 -1.3797744e-06 -0.22989361 0
0.80775338 -1.3258898 3.3671918 0.86591399 0.3317765 0.37432244 0.026606584
0.81609559 -1.3176171 3.3491609 1.5153986 -0.16810855 1.4084948 0.17675778
0.83918947 -1.3294603 3.3783538 0.97050691 2.0972034e-07 -0.24107337 1.820333e-13
0.83283001 -1.3046119 3.3125865 0.76932299 -0.068595298 0.63516676 0.025529046
0.84291536 -1.2931079 3.2859769 1.0940578 2.3634591e-16 -0.19665462 0.0017833855
0.87563449 -1.3223796 3.3603609 6.5971417 -0.054206666 -1.6814138 0.027995005
0.89812493 -1.3348399 3.3899283 0.54178756 -0.69597501 0.49034014 0.076613121
0.90291029 -1.3223792 3.3603599 0.026763791 -1.0379345 0.25433737 0.013011958
0.91984135 -1.3327904 3.372875 0.030251473 -1.0065278 -0.022914171 0.091868259
0.93218273 -1.3245876 3.3657765 -0.41292951 7.839263 2.9580145 0.1486633
0.94852263 -1.3306594 3.379034 -0.24999134 -0.84218347 0.47773567 0.076880425
0.96628946 -1.3430878 3.4188268 0.75578272 -0.019084267 -0.65454435 0.086429708
-2.9860141 -1.8877041 4.846921 0.22542194 0.52598006 0.82007927 0
-2.962013 -1.8815336 4.8363171 0.42739224 -0.80395597 0.41351014 0.0068437816
-2.9242063 -1.8733125 4.8099689 -0.2885488 -0.86567217 0.40908593 0
-2.9082944 -1.8737193 4.8156161 -0.042316061 -0.97177148 0.2320981 0.0039454885
-2.8871069 -1.8765621 4.813848 -0.049195614 -0.92765594 0.37018135 0.0066008661
-2.8723207 -1.8790058 4.8197842 -0.47943097 -0.84104156 0.25058943 0.0098219877
-2.8603091 -1.8823749 4.8344517 -0.56314343 -0.81388825 0.14302246 0.0014455381
-2.8212223 -1.8697488 4.8008184 0.1416546 -2.0580812e-06 0.98991615 0
-2.7999554 -1.8693885 4.7981095 0.0079826461 -0.92714316 0.37462223 0.0027157564
-2.7822537 -1.8697488 4.8008184 -0.39219078 -0.93234885 0.2620669 0.0270213
-2.7751024 -1.8780992 4.8222237 0.72947824 0.68384641 -0.014683444 0.00085642457
-2.729439 -1.8603116 4.776587 -0.93134212 -1.3054374 0.83996862 0.037646182
-2.7045219 -1.858374 4.7708893 0.051928584 -0.46207416 0.88809067 0.027214091
-2.6889708 -1.8591386 4.7735753 1.4791207 -0.79618579 -0.084326334 0.066476248
0.14519323 -1.2424862 3.1902325 -1.718897 -0.036268275 0.25497973 0.016153896
0.15892753 -1.2524703 3.2156839 1.656758 -0.0011800376 0.0078318156 0.10502257
