# .PCD v0.7 - Point Cloud Data file format
VERSION 0.7
FIELDS x y z rgb
SIZE 4 4 4 4
TYPE F F F F
COUNT 1 1 1 1
WIDTH 1025
HEIGHT 1
VIEWPOINT 0 0 0 1 0 0 0
POINTS 1025
DATA ascii
-1.8967838 -1.6657816 3.8372483 3.408346e-39
-1.8456627 -1.6343049 3.7647393 3.4079845e-39
-1.7990719 -1.6063476 3.7003376 3.7764041e-39
-1.7823118 -1.6047789 3.6967239 4.2370207e-39
-1.7777249 -1.6142373 3.7185121 4.4210532e-39
-1.7328446 -1.5869566 3.6556692 4.5132488e-39
-1.6926711 -1.5635524 3.6017559 4.5132474e-39
-1.670899 -1.5568863 3.5864003 4.7891127e-39
-1.6431115 -1.5444489 3.5577495 4.8809496e-39
-1.6248544 -1.5408285 3.5494096 4.7894728e-39
-1.6074346 -1.5379443 3.5427659 4.881667e-39
-1.6005459 -1.545175 3.559422 4.7898301e-39
-1.5913371 -1.5502769 3.5711749 4.881667e-39
-1.5746151 -1.5480863 3.5661285 4.9735025e-39
-1.555745 -1.5437233 3.5560784 4.9738627e-39
-1.53339 -1.5357884 3.5377994 4.9735025e-39
-1.5311954 -1.5480863 3.5661285 4.9738641e-39
-1.5239003 -1.5554128 3.5830057 4.9738641e-39
-1.5122212 -1.5583627 3.5898013 4.9738627e-39
-1.5040704 -1.5650414 3.605186 5.0656996e-39
-1.5059322 -1.5823722 3.6451087 5.0656996e-39
-1.5196735 -1.6126531 3.7148631 5.1578952e-39
-1.5097823 -1.6182113 3.7276666 5.1578938e-39
-1.5117736 -1.6367465 3.770364 5.0660597e-39
-1.5077344 -1.6490653 3.7987409 5.0656982e-39
-1.4998426 -1.6573813 3.8178976 5.1571735e-39
-1.4926275 -1.6666263 3.8391941 4.9727809e-39
-1.4830625 -1.6734151 3.8548324 4.8805824e-39
-1.4711629 -1.6776861 3.8646712 4.8802209e-39
-1.4562213 -1.678543 3.8666449 4.8802223e-39
-1.4420013 -1.6802592 3.8705986 5.0642506e-39
-1.4306811 -1.6854293 3.882508 5.4323129e-39
-1.4141985 -1.6845654 3.8805182 6.2606288e-39
-1.4107418 -1.6993729 3.914628 6.9971134e-39
-1.378461 -1.6794007 3.8686206 8.840303e-39
-1.357903 -1.6734151 3.8548324 1.0869686e-38
-1.337491 -1.6674719 3.8411419 1.2715398e-38
-1.3172235 -1.6615708 3.8275485 1.4560384e-38
-1.297099 -1.6557114 3.8140507 1.5296151e-38
-1.2913781 -1.6683183 3.8430917 1.7874389e-38
-1.2968463 -1.6958654 3.9065485 1.9258764e-38
-1.2950243 -1.714443 3.9493432 2.0276151e-38
-1.2857026 -1.7234331 3.970053 2.1385014e-38
-1.2762827 -1.7325182 3.9909809 2.2124733e-38
-1.2561122 -1.7270558 3.9783976 2.2679346e-38
-1.2531359 -1.7453994 4.0206537 2.3233257e-38
-1.2454162 -1.7575332 4.0486045 2.3234004e-38
-1.2322797 -1.7622451 4.0594587 2.3325487e-38
-1.2249999 -1.7755738 4.0901623 2.3232536e-38
-1.2262875 -1.801857 4.1507077 2.3048137e-38
-1.208117 -1.7998834 4.1461616 2.3048493e-38
-1.1854469 -1.7910557 4.1258259 2.3233971e-38
-1.1783342 -1.8058171 4.1598301 2.3233608e-38
-1.13831 -1.7698369 4.0769472 2.3049576e-38
-1.1187513 -1.7650844 4.0659995 2.3325466e-38
-1.1016577 -1.7641369 4.063817 2.3325489e-38
-1.0840009 -1.7622451 4.0594587 2.3417687e-38
-1.0727021 -1.7707905 4.0791435 2.3140353e-38
-1.0635965 -1.7832811 4.1079168 2.2862662e-38
-1.0412745 -1.7736573 4.0857477 2.2769382e-38
-1.0191922 -1.7641369 4.063817 2.2399156e-38
-1.0174446 -1.7900801 4.123579 2.2212244e-38
-0.99045914 -1.7717451 4.0813427 2.2489188e-38
-0.97023368 -1.7650844 4.0659995 2.286339e-38
-0.96934956 -1.7939886 4.1325822 2.332549e-38
-0.96309149 -1.8137898 4.178196 2.3417314e-38
-0.96858484 -1.8568288 4.2773395 2.1382134e-38
-0.95500195 -1.8642014 4.2943225 2.0362222e-38
-0.93970543 -1.8684406 4.3040881 1.9717567e-38
-0.91702384 -1.8578786 4.2797575 1.8796694e-38
-0.89359266 -1.8453605 4.2509212 1.7691072e-38
-0.87144715 -1.835057 4.2271862 1.8058769e-38
-0.84206671 -1.8087987 4.1666985 2.1195563e-38
-0.82424879 -1.8068098 4.162117 2.3416907e-38
-0.8047024 -1.8008696 4.1484332 2.3049949e-38
-0.78571326 -1.7959492 4.1370988 1.1155275e-38
-0.76724565 -1.7920322 4.1280756 2.855168e-39
-0.74642187 -1.7823141 4.105689 4.7901945e-39
-0.72699904 -1.7755738 4.0901623 5.710706e-39
-0.70506626 -1.7622451 4.0594587 5.9865726e-39
-0.68382424 -1.7500464 4.0313582 5.8032604e-39
-0.663225 -1.738935 4.0057621 5.8029017e-39
-0.63952333 -1.7189263 3.959671 5.8947372e-39
-0.62215132 -1.7153378 3.9514043 5.8954574e-39
-0.57377237 -1.6238079 3.7405586 5.8032618e-39
-0.18801716 -1.0159465 2.3403063 6.079127e-39
-0.17633858 -1.003538 2.3117223 5.8947372e-39
-0.16529086 -0.99352694 2.288661 6.0787669e-39
-0.15413845 -0.98165685 2.2613175 5.9865712e-39
-0.14435719 -0.97756904 2.2519009 5.9869314e-39
-0.1348968 -0.9752484 2.2465551 5.9869314e-39
-0.12544408 -0.97265083 2.2405715 5.8950959e-39
-0.11611013 -0.97064 2.2359395 5.9869328e-39
-0.10697233 -0.97006702 2.2346194 5.8947372e-39
-0.098076761 -0.97178805 2.2385838 4.4214133e-39
-0.089017726 -0.97207546 2.2392461 2.2105273e-39
-0.079858832 -0.9712137 2.2372608 1.1045455e-39
-0.070570312 -0.96835214 2.230669 8.2831733e-40
-0.061300345 -0.96494043 2.22281 9.2015283e-40
-0.052125972 -0.96211565 2.2163029 1.1960194e-39
-0.042842589 -0.95568103 2.2014804 1.2882151e-39
-0.033604901 -0.94714326 2.181813 1.2882151e-39
-0.024678838 -0.94442159 2.1755433 1.1963796e-39
-0.015835688 -0.94360811 2.1736696 1.1963796e-39
-0.007003739 -0.9422555 2.1705534 1.1963796e-39
0.0018044739 -0.94171548 2.1693096 1.0119897e-39
0.010623894 -0.9430666 2.1724219 1.0119883e-39
0.019412873 -0.94171548 2.1693096 1.5651579e-39
0.028233252 -0.9422555 2.1705534 4.0529952e-39
0.037085027 -0.94333726 2.1730456 5.7107088e-39
0.045904391 -0.94333726 2.1730456 6.079127e-39
0.054881275 -0.94605273 2.1793008 6.1716786e-39
0.063854687 -0.94796282 2.1837008 6.0794843e-39
0.072843358 -0.94960618 2.1874864 5.9872901e-39
0.081650555 -0.94878381 2.1855919 5.9872915e-39
0.090625487 -0.94988066 2.1881187 6.0787669e-39
0.099419817 -0.94905776 2.1862233 6.1713212e-39
0.10794976 -0.94605273 2.1793008 6.0794857e-39
0.12007817 -0.97265083 2.2405715 5.8947343e-39
-2.1384277 -1.7457696 4.0594587 4.513246e-39
-2.1117616 -1.7373855 4.0399632 4.513246e-39
-2.06778 -1.7145132 3.9867775 4.329575e-39
-2.067934 -1.7281637 4.0185194 4.2373808e-39
-2.0769806 -1.749522 4.0681844 4.0533497e-39
-2.0560505 -1.7457696 4.0594587 3.7774831e-39
-2.0190063 -1.7281637 4.0185194 3.1328353e-39
-1.9580078 -1.6896006 3.9288483 2.303439e-39
-1.9103391 -1.6620013 3.8646712 1.8424637e-39
-1.8447454 -1.6182209 3.7628682 2.0261346e-39
-1.7859782 -1.5797479 3.6734066 2.3945542e-39
-1.7702107 -1.5789818 3.6716249 3.0399208e-39
-1.7690361 -1.5913297 3.7003376 3.5001801e-39
-1.7270073 -1.5668241 3.6433547 3.7764055e-39
-1.677508 -1.5350591 3.5694911 3.9607939e-39
-1.6528902 -1.5257078 3.5477464 4.2370193e-39
-1.6308495 -1.5185916 3.531199 4.5132474e-39
-1.6142592 -1.5164697 3.5262649 4.7894728e-39
-1.6029341 -1.5193002 3.5328469 4.697996e-39
-1.5982916 -1.5285729 3.5544088 4.6979946e-39
-1.5861 -1.5307289 3.559422 4.881667e-39
-1.567968 -1.5271391 3.5510745 4.8813083e-39
-1.5528276 -1.5264231 3.5494096 4.8820258e-39
-1.5326738 -1.5207195 3.5361471 4.8820258e-39
-1.5290347 -1.531449 3.5610964 4.9735039e-39
-1.5203028 -1.5372335 3.5745471 4.9738627e-39
-1.5079312 -1.5394139 3.5796175 4.9742214e-39
-1.4976519 -1.5437934 3.5898013 4.9738641e-39
-1.4987165 -1.5600673 3.6276429 5.0660597e-39
-1.5100412 -1.5874503 3.6913168 5.0664184e-39
-1.4965193 -1.5889997 3.6949198 5.0660583e-39
-1.4946536 -1.6030824 3.7276666 5.2500894e-39
-1.4972171 -1.6222523 3.7722425 5.2497307e-39
-1.4930663 -1.6344681 3.800648 5.2497307e-39
-1.4896059 -1.6477027 3.8314226 5.1582553e-39
-1.4823078 -1.6569264 3.8528707 5.0660597e-39
-1.4734192 -1.6645503 3.8705986 5.1582553e-39
-1.4592023 -1.666254 3.8745604 5.2500922e-39
-1.4412645 -1.6636997 3.8686206 5.157898e-39
-1.4255637 -1.6636997 3.8686206 5.1586155e-39
-1.4091427 -1.66285 3.8666449 5.0660625e-39
-1.4056542 -1.6774139 3.9005105 4.88203e-39
-1.3742477 -1.6586146 3.856796 4.69728e-39
-1.348292 -1.6460366 3.8275485 4.5128901e-39
-1.3267211 -1.638581 3.8102117 4.1451894e-39
-1.3033857 -1.6287446 3.787339 3.8689612e-39
-1.2822418 -1.6214445 3.770364 4.0540686e-39
-1.2777573 -1.6352891 3.802557 4.6072479e-39
-1.2822899 -1.6611533 3.8626993 5.6203223e-39
-1.2803309 -1.6791441 3.9045336 6.542996e-39
-1.2796633 -1.6993009 3.9514043 8.0202855e-39
-1.26959 -1.7073206 3.970053 9.405378e-39
-1.2521642 -1.705532 3.9658935 1.0697194e-38
-1.2478344 -1.7217665 4.003644 1.3004607e-38
-1.2427579 -1.7373855 4.0399632 1.5956324e-38
-1.2309597 -1.7438996 4.0551105 1.7705529e-38
-1.2243385 -1.758024 4.087954 1.7612937e-38
-1.2269601 -1.7859904 4.1529846 1.9917094e-38
-1.208779 -1.7840331 4.1484332 2.1946116e-38
-1.1899863 -1.7811053 4.1416249 2.2130872e-38
-1.1854993 -1.7998123 4.1851249 2.2774438e-38
-1.13831 -1.7532905 4.0769472 2.3049944e-38
-1.117551 -1.7467062 4.0616364 2.3325472e-38
-1.098121 -1.7420334 4.0507708 2.3417683e-38
-1.0799475 -1.7392417 4.0442791 2.332548e-38
-1.0680982 -1.7467062 4.0616364 2.3324736e-38
-1.0589997 -1.7589737 4.0901623 2.3324718e-38
-1.0373558 -1.7504627 4.0703712 2.3417274e-38
-1.0175536 -1.7448341 4.0572834 2.3417275e-38
-1.0163375 -1.7714149 4.119092 2.3416916e-38
-0.98939246 -1.7532905 4.0769472 2.3416929e-38
-0.97127694 -1.7504627 4.0703712 2.3417314e-38
-0.97040898 -1.7791587 4.1370988 2.3417687e-38
-0.96468866 -1.7998123 4.1851249 2.3416956e-38
-0.96858484 -1.8394692 4.2773395 2.2489554e-38
-0.95500195 -1.8467728 4.2943225 2.2391244e-38
-0.94023991 -1.8520253 4.3065362 2.1375296e-38
-0.9185816 -1.8436356 4.2870278 1.9901608e-38
-0.89610839 -1.8332547 4.2628889 1.8152055e-38
-0.87339777 -1.82197 4.2366486 1.9165118e-38
-0.84485656 -1.7978246 4.1805029 2.2578877e-38
-0.82788986 -1.7978246 4.1805029 2.3325088e-38
-0.80824536 -1.791888 4.1666985 2.0744712e-38
-0.7895965 -1.7879519 4.1575456 4.7023317e-39
-0.77102935 -1.7840331 4.1484332 3.7764041e-39
-0.75008279 -1.7743108 4.1258259 5.0664198e-39
-0.73055118 -1.7675681 4.110147 5.7110662e-39
-0.70848525 -1.7542351 4.0791435 5.9869314e-39
-0.68638265 -1.7401713 4.0464406 5.7110648e-39
-0.66463166 -1.7263311 4.0142579 5.8947372e-39
-0.64120013 -1.7073206 3.970053 6.0787683e-39
-0.62182677 -1.6984144 3.9493432 5.9872929e-39
-0.19576046 -0.99750626 2.3195131 6.079127e-39
-0.18314829 -0.98038554 2.2797022 5.9869314e-39
-0.17218511 -0.97073954 2.2572722 6.0787669e-39
-0.16292676 -0.97016102 2.2559268 6.1709611e-39
-0.15322314 -0.96670443 2.2478893 6.0787655e-39
-0.14380115 -0.96469939 2.243227 6.0787669e-39
-0.1344977 -0.96327233 2.2399085 5.9869314e-39
-0.12514779 -0.96128148 2.2352793 5.8950959e-39
-0.11590475 -0.9598645 2.2319844 5.9869328e-39
-0.10678323 -0.95929891 2.230669 4.8816712e-39
-0.097874179 -0.96071422 2.2339602 2.0257745e-39
-0.088729054 -0.9598645 2.2319844 9.2015563e-40
-0.079647005 -0.95958161 2.2313266 8.2796e-40
-0.070466504 -0.95788777 2.2273877 9.2015423e-40
-0.06119255 -0.95423812 2.2189012 1.1960194e-39
-0.051973823 -0.95033872 2.2098339 1.2882137e-39
-0.042718373 -0.94400126 2.1950974 1.6566361e-39
-0.033537246 -0.93639934 2.1774204 1.5648006e-39
-0.024650503 -0.93451792 2.1730456 1.5644432e-39
-0.0158266 -0.93424976 2.1724219 1.5644404e-39
-0.0070097679 -0.93424976 2.1724219 1.4722476e-39
0.0018060264 -0.93371391 2.171176 1.2882165e-39
0.010645276 -0.93613011 2.1767943 1.104184e-39
0.019446304 -0.93451792 2.1730456 1.1963796e-39
0.028273782 -0.9347862 2.1736696 1.6573549e-39
0.037127655 -0.93559206 2.1755433 4.6058046e-39
0.045943949 -0.9353233 2.1749184 6.0794857e-39
0.054881275 -0.93720794 2.1793008 6.0794843e-39
0.063836277 -0.93882942 2.1830711 5.8032604e-39
0.072780274 -0.93991351 2.1855919 5.9872929e-39
0.081603438 -0.93937117 2.1843309 5.9872915e-39
0.090338282 -0.93801796 2.1811843 6.0787669e-39
0.099247858 -0.93855882 2.1824419 5.9869314e-39
0.10804307 -0.93801796 2.1811843 6.1709625e-39
0.12166241 -0.97627002 2.2701321 5.9872901e-39
-2.0197611 -1.6085455 3.7760053 4.5128887e-39
-2.0769479 -1.6667358 3.912605 4.5132474e-39
-2.0946259 -1.6938728 3.9763081 4.513246e-39
-2.089462 -1.7028161 3.9973025 4.5132446e-39
-2.0356216 -1.6719201 3.9247749 4.2373794e-39
-2.0946171 -1.7339429 4.0703712 4.329575e-39
-2.236841 -1.8663969 4.3813024 3.7771229e-39
-2.2037554 -1.8535252 4.3510866 2.7636955e-39
-2.0505702 -1.7386166 4.0813427 2.0264934e-39
-1.9378947 -1.6564631 3.8884904 1.5658768e-39
-1.8627946 -1.6053429 3.7684872 1.2889325e-39
-1.7844365 -1.5505451 3.6398513 1.1049014e-39
-1.7486466 -1.53213 3.5966227 1.2889311e-39
-1.7423267 -1.5394434 3.6137903 1.4733224e-39
-1.7502165 -1.5595424 3.6609724 1.7499079e-39
-1.7154499 -1.5416509 3.6189725 2.0261346e-39
-1.6657277 -1.5098941 3.5444245 2.7633367e-39
-1.6436477 -1.5028583 3.5279081 3.0395607e-39
-1.6262982 -1.5000622 3.5213447 3.3154273e-39
-1.6097605 -1.497972 3.516438 4.1448265e-39
-1.5962304 -1.4986681 3.5180719 4.6054431e-39
-1.5930562 -1.5091876 3.5427659 4.697996e-39
-1.583866 -1.5141473 3.5544088 4.7901903e-39
-1.5584652 -1.5035589 3.5295527 4.9738627e-39
-1.5455816 -1.5049621 3.5328469 4.8820258e-39
-1.5291028 -1.5028583 3.5279081 4.8820272e-39
-1.5261633 -1.5141473 3.5544088 4.8816684e-39
-1.5195853 -1.5220075 3.5728602 5.0656996e-39
-1.502957 -1.5198557 3.5678091 4.8816684e-39
-1.4912879 -1.5227261 3.5745471 4.9738641e-39
-1.4894387 -1.535778 3.605186 5.0660583e-39
-1.4969041 -1.5587887 3.6592028 5.0660597e-39
-1.4842052 -1.5610522 3.6645164 4.9738641e-39
-1.4693327 -1.5610522 3.6645164 4.9742228e-39
-1.4715546 -1.5793995 3.7075861 5.2500894e-39
-1.4723703 -1.5966009 3.7479658 5.2497293e-39
-1.4717307 -1.6125669 3.7854455 5.0660583e-39
-1.4666338 -1.6239344 3.8121302 5.1582539e-39
-1.4614645 -1.6354634 3.8391941 5.2497321e-39
-1.4510338 -1.6412895 3.8528707 5.4344807e-39
-1.4346668 -1.6404546 3.8509109 5.4341205e-39
-1.4111422 -1.6313272 3.8294845 5.4341205e-39
-1.3956001 -1.6313272 3.8294845 5.2500908e-39
-1.3891928 -1.6421251 3.8548324 5.4344821e-39
-1.3624486 -1.6288555 3.8236823 5.2504509e-39
-1.3341278 -1.6133735 3.787339 5.158614e-39
-1.3095851 -1.6021529 3.760999 5.2504509e-39
-1.2815878 -1.5863914 3.7239995 5.1586155e-39
-1.2615098 -1.5801734 3.7094026 5.0667828e-39
-1.2594132 -1.5966009 3.7479658 4.9745899e-39
-1.2623246 -1.6198562 3.802557 4.6983632e-39
-1.2640333 -1.6421251 3.8548324 4.5139747e-39
-1.2723585 -1.6736553 3.9288483 4.2381095e-39
-1.2636265 -1.683264 3.9514043 3.8704074e-39
-1.2501996 -1.6867855 3.959671 3.5945408e-39
-1.2452005 -1.7019175 3.995193 3.3197545e-39
-1.2414329 -1.7191545 4.035656 3.7810984e-39
-1.2316192 -1.7283676 4.0572834 3.5977932e-39
-1.2256621 -1.7433156 4.0923734 4.0591132e-39
-1.2249442 -1.7662288 4.1461616 5.8111819e-39
-1.2061354 -1.7633318 4.1393609 8.5792004e-39
-1.192596 -1.7681655 4.1507077 1.060714e-38
-1.1809297 -1.7759547 4.1689925 1.3739982e-38
-1.1370853 -1.7348757 4.0725608 1.7240174e-38
-1.1145612 -1.7255932 4.0507708 2.1110954e-38
-1.0928586 -1.7173237 4.0313582 2.3415854e-38
-1.0747802 -1.7145847 4.0249286 2.3137453e-38
-1.0635337 -1.7228279 4.0442791 2.2859401e-38
-1.055578 -1.736744 4.0769472 2.3415093e-38
-1.0351297 -1.730222 4.0616364 2.3416898e-38
-1.0186454 -1.730222 4.0616364 2.341727e-38
-1.0230167 -1.7662288 4.1461616 2.3417277e-38
-0.99152821 -1.7404932 4.0857477 2.3417298e-38
-0.97758394 -1.7452023 4.0968022 2.3417686e-38
-0.97574091 -1.7720516 4.1598301 2.3325852e-38
-0.97059053 -1.7937341 4.2107291 2.3324396e-38
-0.97243059 -1.8293442 4.2943225 2.2860139e-38
-0.95717365 -1.8335041 4.3040881 2.3412586e-38
-0.94184721 -1.8376831 4.3138981 2.2946215e-38
-0.92066693 -1.8303823 4.2967596 2.2207213e-38
-0.89813119 -1.820053 4.272512 2.0823924e-38
-0.87290931 -1.8037661 4.2342792 2.19353e-38
-0.84813482 -1.7877681 4.1967244 2.3324386e-38
-0.83156323 -1.7887597 4.1990519 2.3417323e-38
-0.81181973 -1.7828269 4.1851249 1.7422788e-38
-0.7935183 -1.7798752 4.178196 3.0406425e-39
-0.77527744 -1.7769332 4.1712899 4.4214133e-39
-0.75377977 -1.7662288 4.1461616 5.5263176e-39
-0.73413813 -1.7594838 4.1303277 5.8947386e-39
-0.71193749 -1.7461472 4.0990205 5.9869314e-39
-0.68896025 -1.730222 4.0616364 5.8950945e-39
-0.66675282 -1.7154967 4.0270696 5.8947372e-39
-0.64594221 -1.7037157 3.999414 5.986574e-39
-0.62215132 -1.683264 3.9514043 5.8950973e-39
-0.20599471 -0.99204361 2.3287883 6.1709625e-39
-0.19558071 -0.98718512 2.3173831 6.1709625e-39
-0.18086098 -0.959005 2.2512312 6.1706038e-39
-0.17111373 -0.9555952 2.243227 5.9869314e-39
-0.16229807 -0.95729703 2.2472219 5.98693e-39
-0.15276955 -0.95474654 2.2412348 6.079127e-39
-0.14367343 -0.95474654 2.2412348 6.079127e-39
-0.13441816 -0.95361733 2.2385838 6.079127e-39
-0.12496331 -0.95080596 2.2319844 6.1716814e-39
-0.1157001 -0.94912708 2.2280431 5.6188719e-39
-0.10653212 -0.9480111 2.2254236 2.5785868e-39
-0.09767244 -0.94968605 2.2293553 1.0123499e-39
-0.088442244 -0.94773251 2.2247696 9.2015423e-40
-0.079436302 -0.9480111 2.2254236 1.0119897e-39
-0.070301034 -0.94661981 2.2221575 1.3804107e-39
-0.061013728 -0.94247043 2.2124169 1.7484716e-39
-0.051837649 -0.93890357 2.2040439 1.4722448e-39
-0.042570259 -0.93185025 2.1874864 1.7484716e-39
-0.033460259 -0.92543292 2.1724219 1.6566361e-39
-0.024622234 -0.92463696 2.1705534 1.6566375e-39
-0.015849339 -0.92676258 2.1755433 1.7481128e-39
-0.0070238765 -0.92729551 2.1767943 1.6562773e-39
0.0018096593 -0.92676258 2.1755433 1.6562787e-39
0.010666745 -0.9291656 2.1811843 1.4722476e-39
0.019502282 -0.9283632 2.1793008 1.2885752e-39
0.028338872 -0.92809606 2.1786735 1.2885738e-39
0.037202489 -0.92863053 2.1799283 2.6711425e-39
0.046036527 -0.9283632 2.1793008 5.3433654e-39
0.054992083 -0.93023759 2.1837008 6.0794857e-39
0.063983873 -0.93211961 2.1881187 6.0787683e-39
0.072948746 -0.93319845 2.1906512 6.0791284e-39
0.081744947 -0.93211961 2.1881187 6.1713226e-39
0.090677902 -0.93265867 2.1893842 6.1706052e-39
0.099592373 -0.9329285 2.1900175 6.1709625e-39
0.10898503 -0.93726641 2.2002008 6.0784081e-39
0.12469088 -0.99112898 2.3266413 6.1709639e-39
-0.97096699 -0.75446552 1.7881178 4.4210504e-39
-0.96143913 -0.75268781 1.7839046 4.3292163e-39
-0.95195603 -0.75091845 1.779711 4.3292163e-39
-0.94340241 -0.74986082 1.7772044 4.4210532e-39
-0.93181485 -0.74635679 1.7688997 4.513246e-39
-0.92054921 -0.7430582 1.7610818 4.5132446e-39
-0.90833086 -0.73893297 1.7513049 4.421049e-39
-0.90331268 -0.74064624 1.7553654 4.329575e-39
-0.89764541 -0.74185026 1.758219 3.6849287e-39
-0.89154482 -0.74271268 1.760263 2.2105231e-39
-0.88874012 -0.74635679 1.7688997 1.4733224e-39
-0.88321185 -0.74775445 1.7722123 1.1052616e-39
-0.87807471 -0.74950892 1.7763704 1.197097e-39
-1.7041209 -1.4788922 3.5050421 9.2051156e-40
-1.7080835 -1.4948092 3.5427659 9.2051156e-40
-1.7284851 -1.5255048 3.6155162 8.2831593e-40
-1.685637 -1.5004261 3.5560784 1.0123485e-39
-1.5591562 -1.3998278 3.3176558 1.2885724e-39
-1.5838652 -1.4343992 3.3995917 1.5651565e-39
-1.6076051 -1.4686929 3.4808693 1.6573535e-39
-1.5942109 -1.4693685 3.4824705 2.3019999e-39
-1.5829898 -1.472077 3.4888897 3.3157875e-39
-1.5863752 -1.4885402 3.5279081 4.0533483e-39
-1.5966089 -1.5117875 3.5830057 4.5136048e-39
-1.5709153 -1.5011312 3.5577495 4.881667e-39
-1.5513729 -1.4962094 3.5460846 4.9738613e-39
-1.5312434 -1.490624 3.5328469 4.9738613e-39
-1.538442 -1.5117875 3.5830057 4.8816684e-39
-1.5458479 -1.5335608 3.6346092 4.9735039e-39
-1.5266992 -1.5291561 3.6241698 4.9735053e-39
-1.4990735 -1.5160927 3.5932088 4.7898329e-39
-1.4979987 -1.5298885 3.6259055 4.9742242e-39
-1.5144717 -1.5620573 3.702147 4.9738655e-39
-1.5031216 -1.5658859 3.711221 4.9738655e-39
-1.4700443 -1.5469284 3.666291 5.0660597e-39
-1.4615344 -1.5537 3.6823399 4.9738627e-39
-1.4651172 -1.5735996 3.7295029 5.0660583e-39
-1.4636804 -1.588467 3.7647393 5.0660569e-39
-1.4570959 -1.5980026 3.787339 5.066417e-39
-1.4489734 -1.6060368 3.8063805 5.2500908e-39
-1.4371378 -1.6100843 3.8159733 5.342285e-39
-1.428129 -1.6174213 3.8333623 5.2504495e-39
-1.4005162 -1.603618 3.800648 5.250088e-39
-1.3788613 -1.5964054 3.7835536 5.1582539e-39
-1.3669212 -1.6004044 3.7930315 5.3422864e-39
-1.3454604 -1.5932205 3.7760053 5.2504509e-39
-1.3176489 -1.5782644 3.7405586 5.2508083e-39
-1.2916192 -1.5651187 3.7094026 5.3426438e-39
-1.2611172 -1.5461797 3.6645164 5.3426438e-39
-1.2438365 -1.5431918 3.6574352 5.2504495e-39
-1.2415885 -1.5590079 3.6949198 5.3422864e-39
-1.244202 -1.5813897 3.7479658 5.4348394e-39
-1.2487735 -1.6068447 3.8082952 5.5263148e-39
-1.2612319 -1.6432135 3.8944912 5.6185104e-39
-1.2570655 -1.6585706 3.9308882 5.4344793e-39
-1.2488931 -1.6689693 3.9555333 5.2508083e-39
-1.2432323 -1.6830385 3.9888783 5.4344807e-39
-1.2407715 -1.7018684 4.0335059 5.5263134e-39
-1.2329408 -1.7137377 4.0616364 5.433759e-39
-1.226325 -1.7276404 4.0945868 5.0656953e-39
-1.2215992 -1.7446243 4.1348395 4.7894686e-39
-1.2054763 -1.7455777 4.1370988 4.6050731e-39
-1.195217 -1.7551688 4.1598301 4.6047116e-39
-1.1776872 -1.7542049 4.1575456 4.788377e-39
-1.1395373 -1.7220523 4.0813427 5.1557134e-39
-1.1145612 -1.7091531 4.0507708 7.0900125e-39
-1.0905358 -1.697347 4.02279 9.3016216e-39
-1.0713629 -1.6928495 4.0121307 1.0590923e-38
-1.058445 -1.6982495 4.0249286 1.1421404e-38
-1.0448872 -1.7027756 4.035656 1.3635897e-38
-1.0263201 -1.6991527 4.0270696 1.5483052e-38
-1.0148343 -1.7073261 4.0464406 1.7420971e-38
-1.0168908 -1.7389261 4.1213341 1.8621677e-38
-0.98779666 -1.7174232 4.0703712 2.0007507e-38
-0.97758394 -1.7285752 4.0968022 2.148482e-38
-0.97520506 -1.7542049 4.1575456 2.2406781e-38
-0.9727546 -1.780606 4.2201176 2.1943616e-38
-0.9751963 -1.8170689 4.3065362 2.203183e-38
-0.95935524 -1.8201751 4.3138981 2.2955214e-38
-0.94561887 -1.827464 4.3311734 2.304237e-38
-0.92592192 -1.8232918 4.3212848 2.2670348e-38
-0.90220433 -1.8108884 4.2918882 2.2025339e-38
-0.87535715 -1.7915912 4.2461529 2.3136001e-38
-0.85333806 -1.781599 4.2224712 2.3233635e-38
-0.83620107 -1.781599 4.2224712 2.2866676e-38
-0.81633234 -1.7756571 4.2083883 1.1429013e-38
-0.7979219 -1.7727009 4.2013822 3.498378e-39
-0.77914095 -1.7687747 4.1920767 4.88203e-39
-0.75709677 -1.7570996 4.1644063 5.710706e-39
-0.73776054 -1.7513196 4.1507077 5.8950959e-39
-0.71425778 -1.7351478 4.1123796 6.0787683e-39
-0.69007087 -1.7165003 4.0681844 5.9869328e-39
-0.66746289 -1.7009623 4.0313582 6.1706038e-39
-0.64868361 -1.6946456 4.0163875 6.1706038e-39
-0.62377918 -1.6715893 3.9617429 5.8947372e-39
-0.2025677 -0.96624535 2.2900455 6.0787655e-39
-0.19380108 -0.96888298 2.2962968 6.1706038e-39
-0.18032479 -0.94705224 2.2445569 6.0787683e-39
-0.17116445 -0.9467715 2.2438917 5.9869328e-39
-0.16244271 -0.9490217 2.2492249 5.9869328e-39
-0.15286005 -0.94621062 2.2425625 5.9869328e-39
-0.14367343 -0.9456504 2.2412348 6.1706024e-39
-0.13437843 -0.94425279 2.2379222 5.9869328e-39
-0.12477938 -0.94036126 2.228699 5.9872929e-39
-0.1155301 -0.93870324 2.2247696 3.5923743e-39
-0.10612658 -0.93540472 2.2169518 1.1967397e-39
-0.097100586 -0.93513089 2.2163029 7.3648324e-40
-0.087797239 -0.93185741 2.2085445 8.2831873e-40
-0.078787841 -0.93131405 2.2072568 1.1963796e-39
-0.069646887 -0.92887676 2.2014804 1.5644404e-39
-0.060413476 -0.92430764 2.1906512 1.6566361e-39
-0.051300008 -0.92031318 2.1811843 1.7484716e-39
-0.042192344 -0.91477865 2.1680672 1.9328628e-39
-0.033231407 -0.91034687 2.1575637 1.6566361e-39
-0.024523802 -0.91216654 2.1618762 1.5644418e-39
-0.015772291 -0.91347075 2.1649673 1.6562773e-39
-0.0070158076 -0.91740584 2.1742938 1.6566375e-39
0.0018106999 -0.91846091 2.1767943 1.7484744e-39
0.010679051 -0.92137498 2.1837008 1.4726063e-39
0.019552937 -0.92190683 2.1849613 1.2885752e-39
0.028396074 -0.92110932 2.1830711 1.2885752e-39
0.037266869 -0.92137498 2.1837008 1.5648006e-39
0.046102881 -0.92084378 2.1824419 3.4998214e-39
0.055039708 -0.92217296 2.1855919 5.8032618e-39
0.064039402 -0.92404026 2.1900175 6.3553538e-39
0.072990984 -0.92484283 2.1919198 6.17168e-39
0.081886947 -0.92484283 2.1919198 6.1713226e-39
0.090940885 -0.92645216 2.195734 6.1709639e-39
0.10008454 -0.92860675 2.2008402 6.2631595e-39
0.11072261 -0.94313765 2.2352793 6.1706024e-39
-0.96658134 -0.73831517 1.7668357 4.3288562e-39
-0.96187979 -0.74021536 1.7713829 4.4214105e-39
-0.95379794 -0.73952323 1.7697266 4.2377396e-39
-0.94440788 -0.73779863 1.7655995 4.329575e-39
-0.93833631 -0.73865992 1.7676607 4.4214105e-39
-0.92532891 -0.73403257 1.7565871 4.513246e-39
-0.91311514 -0.72996783 1.7468599 4.5132446e-39
-0.9008292 -0.72578126 1.7368412 4.3295736e-39
-0.89439571 -0.72628111 1.7380373 3.5927317e-39
-0.8879534 -0.72678167 1.7392352 2.5785854e-39
-0.88028795 -0.72628111 1.7380373 2.025413e-39
-0.87868047 -0.73081094 1.7488775 1.6569934e-39
-0.87319624 -0.73216397 1.7521155 1.2892913e-39
-0.86789298 -0.73369211 1.7557725 1.3811268e-39
-0.86036807 -0.73335201 1.7549585 1.380768e-39
-0.85127223 -0.73165596 1.7508998 1.1049e-39
-0.84947044 -0.73625332 1.7619015 1.1049014e-39
-0.84586298 -0.73935044 1.7693131 1.1045413e-39
-0.84104079 -0.74142969 1.7742889 1.1041826e-39
-0.83423084 -0.74177736 1.775121 1.2885724e-39
-0.82877535 -0.74334598 1.7788748 1.4726049e-39
-0.82329673 -0.74492121 1.7826444 1.3811282e-39
-0.81760192 -0.7463271 1.7860087 1.2889325e-39
-0.81246167 -0.74826878 1.7906554 1.6573521e-39
-0.80998361 -0.75271958 1.8013064 2.4867485e-39
-0.81038541 -0.75995207 1.8186141 3.3157861e-39
-0.79954743 -0.75668031 1.8107847 4.0526308e-39
-0.79696375 -0.76123208 1.8216773 4.6979946e-39
-0.79957467 -0.7708773 1.844759 4.9735025e-39
-1.5702977 -1.557696 3.7276666 4.8820286e-39
-1.4856764 -1.4880905 3.5610964 4.7898343e-39
-1.4534485 -1.4701117 3.5180719 4.6979974e-39
-1.4783268 -1.51011 3.6137903 4.8820272e-39
-1.4615672 -1.5079507 3.6086228 4.9738641e-39
-1.4258531 -1.4859936 3.5560784 5.0656996e-39
-1.4302307 -1.5057975 3.6034701 5.1578938e-39
-1.4340347 -1.5254004 3.6503813 5.1578938e-39
-1.4386419 -1.5462759 3.7003376 5.2497293e-39
-1.4455259 -1.5700648 3.7572658 5.2497293e-39
-1.4374105 -1.5778955 3.7760053 5.2500908e-39
-1.4235054 -1.579471 3.7797756 5.1582539e-39
-1.4109828 -1.5826316 3.787339 5.1582539e-39
-1.381103 -1.5661784 3.7479658 5.1578924e-39
-1.3638662 -1.5638559 3.7424078 4.9742228e-39
-1.3493446 -1.5646293 3.7442586 5.342285e-39
-1.3249745 -1.5538706 3.7185121 5.2500908e-39
-1.2927394 -1.5335339 3.6698453 5.2508083e-39
-1.2704554 -1.5246652 3.648622 5.3426424e-39
-1.2412902 -1.5072322 3.6069036 5.4341205e-39
-1.2225744 -1.5022224 3.5949149 5.342285e-39
-1.2219092 -1.5195391 3.6363549 5.2504495e-39
-1.2212285 -1.5372597 3.6787612 5.4344793e-39
-1.2289908 -1.5661784 3.7479658 5.4341191e-39
-1.2464844 -1.6083785 3.848953 5.4341191e-39
-1.2492819 -1.6324461 3.9065485 5.3422836e-39
-1.2482411 -1.6520525 3.9534678 5.5263162e-39
-1.2419236 -1.665095 3.9846795 5.4344807e-39
-1.2414329 -1.6863968 4.035656 5.4341205e-39
-1.2336025 -1.6981645 4.063817 5.6185118e-39
-1.2276529 -1.7128751 4.0990205 5.5266749e-39
-1.2215992 -1.7278429 4.1348395 5.6188691e-39
-1.2061354 -1.7297324 4.1393609 5.7107074e-39
-1.1958741 -1.7392416 4.162117 5.6185118e-39
-1.1763952 -1.7354254 4.1529846 5.5263162e-39
-1.1413832 -1.7082508 4.087954 5.5263134e-39
-1.1145612 -1.6927129 4.0507708 5.6177873e-39
-1.0882229 -1.6774552 4.0142579 5.3412004e-39
-1.0690966 -1.6730198 4.003644 5.2486433e-39
-1.0528477 -1.6730198 4.003644 4.8802251e-39
-1.0371473 -1.673905 4.0057621 4.4199686e-39
-1.02035 -1.6730198 4.003644 4.1444649e-39
-1.0105135 -1.6837044 4.029213 4.2381081e-39
-1.0064808 -1.7045692 4.0791435 4.700168e-39
-0.98462045 -1.6954343 4.0572834 5.4406184e-39
-0.97864306 -1.7138031 4.1012411 7.196308e-39
-0.9773519 -1.741156 4.1666985 9.5944846e-39
-0.97765929 -1.77237 4.2413955 8.6732191e-39
-0.97853601 -1.8057537 4.3212848 9.9610685e-39
-0.95990223 -1.8036947 4.3163571 1.2359947e-38
-0.94942093 -1.8171629 4.3485875 1.4387161e-38
-0.93123716 -1.8161197 4.3460913 1.6504772e-38
-0.90425485 -1.7975457 4.3016424 1.9175915e-38
-0.87930244 -1.7823552 4.2652907 2.2309842e-38
-0.85860562 -1.7753538 4.2485356 2.3416575e-38
-0.83994877 -1.77237 4.2413955 2.037594e-38
-0.82043678 -1.7674192 4.229548 4.797044e-39
-0.80192703 -1.7644621 4.2224712 3.7764083e-39
-0.78260767 -1.7595553 4.2107291 5.3426438e-39
-0.76044303 -1.7478898 4.1828127 5.8025429e-39
-0.74223673 -1.7449975 4.1758914 5.9865726e-39
-0.71698397 -1.7250166 4.1280756 5.986574e-39
-0.69044191 -1.7009035 4.0703712 5.8029017e-39
-0.67103601 -1.6936191 4.0529394 5.9865712e-39
-0.65006304 -1.6819141 4.0249286 5.9862125e-39
-0.62410575 -1.6563772 3.9638171 5.8029017e-39
-0.2060581 -0.97344017 2.329505 5.98693e-39
-0.19427247 -0.96189737 2.3018823 6.0787683e-39
-0.18107636 -0.94185185 2.2539122 6.0787697e-39
-0.17162225 -0.94017249 2.2498932 6.0791256e-39
-0.16278124 -0.94185185 2.2539122 6.0787669e-39
-0.15304138 -0.9382208 2.2452226 6.0787669e-39
-0.14371598 -0.93683165 2.2418983 6.0787655e-39
-0.13437843 -0.93517011 2.2379222 5.9876516e-39
-0.12481613 -0.93159026 2.2293553 4.6054445e-39
-0.11532675 -0.9280377 2.2208538 1.8410259e-39
-0.10587855 -0.92424202 2.2117705 8.2796e-40
-0.096760675 -0.92289394 2.2085445 8.2831873e-40
-0.087465547 -0.91940731 2.2002008 1.0123485e-39
-0.078353807 -0.91727471 2.1950974 1.2885738e-39
-0.069144234 -0.91330266 2.1855919 1.5644404e-39
-0.05987639 -0.9072786 2.171176 1.6566361e-39
-0.050889488 -0.90416706 2.1637299 1.748473e-39
-0.041916262 -0.90005136 2.1538808 1.9328628e-39
-0.033033714 -0.89622676 2.1447282 1.8410273e-39
-0.02437762 -0.89800751 2.1489897 1.8406672e-39
-0.015713874 -0.90133345 2.156949 1.8406672e-39
-0.0069997255 -0.90649873 2.1693096 1.7484716e-39
0.0018070629 -0.90779924 2.1724219 1.7488317e-39
0.010669818 -0.91172349 2.181813 1.4729651e-39
0.01956423 -0.91356641 2.1862233 1.4722476e-39
0.028420659 -0.91303909 2.1849613 1.3804107e-39
0.037320692 -0.91383028 2.1868546 1.4726063e-39
0.046169426 -0.91330266 2.1855919 1.8413819e-39
0.055071507 -0.91383028 2.1868546 4.3288576e-39
0.064113587 -0.91621214 2.1925545 6.2631581e-39
0.073075615 -0.91700882 2.1944611 6.2631567e-39
0.082148567 -0.91887319 2.1989226 6.262798e-39
0.09144479 -0.92262483 2.2079005 6.1709625e-39
0.10123224 -0.93022066 2.2260778 6.079127e-39
-0.956536 -0.72354591 1.7484736 4.2370207e-39
-0.95406693 -0.72707212 1.7569948 4.4214105e-39
-0.94891804 -0.72859389 1.7606723 4.329575e-39
-0.94133449 -0.72825521 1.7598537 4.2377382e-39
-0.93680519 -0.73029226 1.7647763 4.4214091e-39
-0.92447096 -0.72622943 1.7549585 4.4214091e-39
-0.91269398 -0.72254467 1.7460542 4.237378e-39
-0.90144956 -0.71922725 1.7380373 3.6845658e-39
-0.89398527 -0.71889716 1.7372397 2.9470049e-39
-0.88693464 -0.71889716 1.7372397 2.4849492e-39
-0.87686586 -0.71643126 1.7312808 2.7615361e-39
-0.87383592 -0.71972293 1.7392352 2.3012796e-39
-0.86737496 -0.72021925 1.7404346 1.8410231e-39
-0.86050916 -0.7203849 1.7408348 1.8410245e-39
-0.85226816 -0.71939236 1.7384365 1.6569934e-39
-0.84192616 -0.71659511 1.7316767 1.6569934e-39
-0.8375802 -0.71889716 1.7372397 1.6566347e-39
-0.83570719 -0.72337884 1.7480699 1.4729623e-39
-0.8297621 -0.7243824 1.750495 1.7488275e-39
-0.8239913 -0.72555667 1.7533327 2.2087252e-39
-0.81934214 -0.72774768 1.7586274 2.1172485e-39
-0.8152346 -0.73046255 1.7651879 1.7488289e-39
-0.80995899 -0.73216963 1.7693131 1.380768e-39
-0.80447024 -0.73371285 1.7730423 1.2889311e-39
-0.79933345 -0.73560786 1.7776217 1.4729609e-39
-0.79398316 -0.73733908 1.7818053 1.8410217e-39
-0.78823578 -0.73872995 1.7851664 3.2232317e-39
-0.78376269 -0.74135208 1.7915028 4.3292163e-39
-1.4054793 -1.4653666 3.5411088 4.8820286e-39
-1.3872145 -1.4612658 3.531199 4.9738641e-39
-1.3950053 -1.4848123 3.5881 5.1582539e-39
-1.4023759 -1.5084034 3.6451087 5.1578938e-39
-1.4218096 -1.5456111 3.7350225 5.2497293e-39
-1.4284977 -1.5696161 3.7930315 5.1582539e-39
-1.4088686 -1.564912 3.7816637 5.1578938e-39
-1.3689048 -1.5372688 3.7148631 5.2497293e-39
-1.3544925 -1.5380235 3.7166867 5.1582539e-39
-1.3367833 -1.5350093 3.7094026 5.2504495e-39
-1.2957003 -1.5047809 3.6363549 5.2500894e-39
-1.2736014 -1.4961575 3.6155162 5.342285e-39
-1.2613373 -1.4990209 3.6224358 5.342285e-39
-1.2354045 -1.4855163 3.5898013 5.2504495e-39
-1.2196786 -1.4841088 3.5864003 5.3419263e-39
-1.2189817 -1.5011758 3.6276429 5.4344793e-39
-1.2123917 -1.5113139 3.6521423 5.4344779e-39
-1.2115966 -1.529016 3.6949198 5.4341191e-39
-1.2296063 -1.5711905 3.7968359 5.2500894e-39
-1.2390523 -1.6033541 3.8745604 5.3422822e-39
-1.2411119 -1.6266634 3.9308882 5.4337604e-39
-1.2360686 -1.6411492 3.9658935 5.5263148e-39
-1.2335424 -1.6594034 4.0100055 5.4344793e-39
-1.2257075 -1.6709087 4.0378084 5.5266749e-39
-1.2203848 -1.6861969 4.0747528 5.5266749e-39
-1.2136453 -1.6999207 4.1079168 5.434838e-39
-1.2002294 -1.704545 4.119092 5.6185104e-39
-1.1854469 -1.7073318 4.1258259 5.6188705e-39
-1.1667945 -1.704545 4.119092 5.4348394e-39
-1.1340352 -1.6807692 4.0616364 5.5266763e-39
-1.1068624 -1.6646938 4.02279 5.6185118e-39
-1.0807732 -1.6497914 3.9867775 5.527035e-39
-1.0606829 -1.6437323 3.9721358 5.4351995e-39
-1.0440142 -1.6428704 3.970053 5.4348422e-39
-1.028441 -1.6437323 3.9721358 5.4344807e-39
-1.0123199 -1.6437323 3.9721358 5.4348422e-39
-1.001453 -1.6524018 3.9930859 5.1586183e-39
-0.99257618 -1.6646938 4.02279 4.9745885e-39
-0.97832894 -1.6682395 4.0313582 4.6987247e-39
-0.97599953 -1.6925737 4.0901623 4.146274e-39
-0.97627729 -1.7223495 4.162117 3.6863791e-39
-0.98095661 -1.7610757 4.2557001 3.6860161e-39
-0.98021448 -1.7912829 4.3286967 3.5023423e-39
-0.95990223 -1.7861767 4.3163571 3.5948953e-39
-0.95380372 -1.807821 4.3686619 3.9640295e-39
-0.93445575 -1.8046969 4.3611121 4.8848998e-39
-0.90374136 -1.7790766 4.2991996 6.9117533e-39
-0.88228482 -1.771031 4.2797575 1.0779634e-38
-0.86150628 -1.7640506 4.2628889 1.4556773e-38
-0.84230816 -1.7600864 4.2533092 1.2156472e-38
-0.82273495 -1.7551562 4.2413955 3.5891402e-39
-0.80461961 -1.7531918 4.2366486 4.4217735e-39
-0.78479004 -1.7473251 4.2224712 5.5266763e-39
-0.76339537 -1.7376338 4.1990519 5.8025429e-39
-0.74635345 -1.7376338 4.1990519 5.8029031e-39
-0.71815872 -1.7110616 4.1348395 5.8947386e-39
-0.6893301 -1.6816714 4.063817 5.8029017e-39
-0.67610317 -1.6898348 4.0835443 5.8947372e-39
-0.65075499 -1.6673517 4.029213 6.0787669e-39
-0.20643921 -0.96576875 2.3338134 5.9872915e-39
-0.19391872 -0.95082057 2.2976906 5.8032604e-39
-0.18118425 -0.93326002 2.255255 5.8950959e-39
-0.1717243 -0.93159497 2.2512312 5.9872887e-39
-0.16268438 -0.93214929 2.2525709 5.98693e-39
-0.15295066 -0.92855775 2.2438917 5.98693e-39
-0.14358842 -0.92690939 2.2399085 5.9869314e-39
-0.13425937 -0.92526692 2.2359395 4.7901931e-39
-0.12474266 -0.92199934 2.2280431 2.1179701e-39
-0.11509043 -0.91714102 2.2163029 8.2831873e-40
-0.10557013 -0.91259944 2.205328 6.4428761e-40
-0.096339121 -0.90994883 2.1989226 8.2831873e-40
-0.087035552 -0.90600169 2.1893842 1.3804093e-39
-0.077924535 -0.90338922 2.1830711 1.5644418e-39
-0.068629123 -0.89769453 2.1693096 1.7488303e-39
-0.059450164 -0.89207113 2.1557207 1.7488303e-39
-0.050542809 -0.8892858 2.1489897 1.7484716e-39
-0.041690908 -0.88651776 2.1423008 1.8406658e-39
-0.032856863 -0.8827709 2.1332462 2.1168925e-39
-0.024212673 -0.88326865 2.134449 1.9328628e-39
-0.01565589 -0.8892858 2.1489897 1.9328628e-39
-0.0069677816 -0.89359778 2.1594098 1.7488317e-39
0.0017988044 -0.89487398 2.1624937 1.6566361e-39
0.010629994 -0.89949864 2.1736696 1.5644418e-39
0.019513516 -0.90234846 2.1805561 1.4726063e-39
0.028387887 -0.9031288 2.1824419 1.3804107e-39
0.037288379 -0.90417135 2.1849613 1.4726063e-39
0.046129476 -0.90364981 2.1837008 1.6569948e-39
0.055087417 -0.90521634 2.1874864 2.4856695e-39
0.064169332 -0.90810257 2.1944611 5.6185118e-39
0.073202923 -0.9096846 2.1982841 6.1713212e-39
0.082411863 -0.91286534 2.2059705 6.1713212e-39
0.092116386 -0.92037421 2.2241161 6.2631567e-39
0.10216345 -0.9296599 2.2465551 6.3549936e-39
-0.97648668 -0.72600681 1.7717975 4.3288576e-39
-0.95719922 -0.71694642 1.7496859 4.4210518e-39
-0.95384556 -0.71977431 1.7565871 4.3295736e-39
-0.94913876 -0.72161597 1.7610818 4.4214091e-39
-0.94111574 -0.72094518 1.7594447 4.3292149e-39
-0.93549681 -0.72211993 1.7623116 4.4210504e-39
-0.92297333 -0.71794194 1.7521155 4.3292149e-39
-0.91269398 -0.71545827 1.7460542 3.7764013e-39
-0.90310818 -0.71348369 1.7412353 3.0391992e-39
-0.89378017 -0.71168321 1.7368412 2.6700593e-39
-0.88510674 -0.71037948 1.7336594 2.8540876e-39
-0.87646502 -0.70908052 1.7304894 3.5905723e-39
-0.87243295 -0.71152002 1.7364428 2.9455658e-39
-0.86538559 -0.71152002 1.7364428 2.4849506e-39
-0.85735494 -0.71070498 1.7344538 2.301281e-39
-0.8489542 -0.70956707 1.7316767 2.0250542e-39
-0.83923876 -0.70730215 1.7261493 2.2090854e-39
-0.83280277 -0.70778626 1.7273308 2.2087252e-39
-0.82843852 -0.71005428 1.7328658 2.0246941e-39
-0.82197005 -0.7105422 1.7340565 2.6689789e-39
-0.81605381 -0.71152002 1.7364428 3.4058223e-39
-0.81161249 -0.71381205 1.7420366 2.8537303e-39
-0.80826193 -0.71711212 1.7500904 2.1172471e-39
-0.80301541 -0.71877366 1.7541453 1.9332187e-39
-0.79718912 -0.71994132 1.7569948 1.8410231e-39
-0.79244906 -0.72211993 1.7623116 1.7491862e-39
-0.78731263 -0.72397369 1.7668357 1.7488289e-39
-0.78160107 -0.72532785 1.7701404 2.2090854e-39
-0.77677798 -0.72753918 1.7755373 3.2232317e-39
-0.77083737 -0.72873551 1.7784568 4.1448265e-39
-0.76613903 -0.73114002 1.784325 4.6976373e-39
-0.7621305 -0.73425496 1.7919269 4.7898315e-39
-0.75754744 -0.73687106 1.7983114 4.8813083e-39
-0.7545504 -0.74109584 1.8086218 5.0656996e-39
-1.3492547 -1.4523536 3.5444245 5.2497307e-39
-1.3411484 -1.4591849 3.5610964 5.1578938e-39
-1.3070226 -1.4375473 3.5082905 5.2500894e-39
-1.3048775 -1.450995 3.5411088 5.2497293e-39
-1.3033073 -1.4653884 3.5762355 5.3415662e-39
-1.2936817 -1.470947 3.5898013 5.3419249e-39
-1.2694814 -1.4598716 3.562772 5.250088e-39
-1.2585754 -1.4640052 3.5728602 5.2500894e-39
-1.2470174 -1.4674679 3.5813107 5.2504481e-39
-1.2197884 -1.4523536 3.5444245 5.158614e-39
-1.2139281 -1.4626248 3.5694911 5.342285e-39
-1.2349586 -1.5059355 3.6751897 5.4341205e-39
-1.2466707 -1.5388031 3.7554021 5.4344779e-39
-1.2443917 -1.5550011 3.7949326 5.4344793e-39
-1.2483884 -1.5795454 3.8548324 5.342285e-39
-1.2531615 -1.6057076 3.9186804 5.4344793e-39
-1.2541351 -1.6276113 3.9721358 5.4341191e-39
-1.2432323 -1.6344717 3.9888783 5.525956e-39
-1.2355057 -1.6457438 4.0163875 5.4344807e-39
-1.2244015 -1.6527582 4.0335059 5.5263148e-39
-1.2164565 -1.6642849 4.0616364 5.4344793e-39
-1.2083999 -1.6759737 4.0901623 5.4344807e-39
-1.1937346 -1.6786944 4.0968022 5.5266735e-39
-1.1758351 -1.6768795 4.0923734 5.527035e-39
-1.1573493 -1.6741647 4.0857477 5.5266749e-39
-1.1279838 -1.6554041 4.0399632 5.4344793e-39
-1.1021773 -1.6413901 4.0057621 5.4344793e-39
-1.0785015 -1.6301771 3.9783976 5.3426452e-39
-1.0584617 -1.6242027 3.9638171 5.4348408e-39
-1.0429204 -1.6250535 3.9658935 5.5266735e-39
-1.0279016 -1.6267579 3.970053 5.5266721e-39
-1.0128512 -1.6284657 3.974221 5.7103445e-39
-0.99881905 -1.6318922 3.9825833 5.6185104e-39
-0.9920491 -1.6474918 4.0206537 5.5263134e-39
-0.98094058 -1.6562879 4.04212 5.5263148e-39
-0.98076826 -1.6841624 4.110147 5.5266749e-39
-0.98167408 -1.7148851 4.1851249 5.710706e-39
-0.98817766 -1.7566406 4.2870278 5.7103459e-39
-0.98133665 -1.7757454 4.3336525 5.7107074e-39
-0.95935524 -1.7676508 4.3138981 5.7099872e-39
-0.95767194 -1.7973506 4.3863792 5.709983e-39
-0.93607336 -1.7900907 4.3686619 5.6170671e-39
-0.90476888 -1.7636311 4.3040881 5.5248686e-39
-0.88578993 -1.7606283 4.2967596 5.4323087e-39
-0.86442667 -1.7526708 4.2773395 5.2468412e-39
-0.84515703 -1.7487189 4.267695 5.062094e-39
-0.82597405 -1.7447847 4.2580938 4.4196169e-39
-0.80778384 -1.7428242 4.2533092 4.8816726e-39
-0.78742504 -1.7359973 4.2366486 5.1582553e-39
-0.76679772 -1.7282603 4.2177663 5.3426438e-39
-0.75093484 -1.7311535 4.2248273 5.4344793e-39
-0.7173751 -1.6924316 4.1303277 5.6185118e-39
-0.68896025 -1.6642849 4.0616364 5.527035e-39
-0.67903322 -1.6805131 4.1012411 5.6192293e-39
-0.65006304 -1.6492436 4.0249286 5.9869314e-39
-0.21524753 -0.95335805 2.3266413 6.0787655e-39
-0.20618498 -0.95511919 2.3309393 6.079127e-39
-0.19339049 -0.93893075 2.2914319 5.9872901e-39
-0.18140039 -0.9252094 2.2579453 5.8032604e-39
-0.17198001 -0.92383182 2.2545834 6.1713226e-39
-0.16282971 -0.92383182 2.2545834 5.9869314e-39
-0.15308678 -0.92026913 2.2458887 5.9865712e-39
-0.14358842 -0.91781867 2.2399085 5.710706e-39
-0.13437843 -0.91700476 2.2379222 3.1313976e-39
-0.12481613 -0.91349447 2.2293553 1.1967383e-39
-0.11512414 -0.90841204 2.2169518 8.2831873e-40
-0.10557013 -0.90364903 2.205328 7.361217e-40
-0.096171528 -0.89945698 2.1950974 9.2015423e-40
-0.086734563 -0.89401358 2.181813 1.5640803e-39
-0.077588946 -0.89067674 2.1736696 1.6559158e-39
-0.068315923 -0.88483375 2.1594098 1.74811e-39
-0.059113529 -0.87832028 2.1435139 2.0246955e-39
-0.05027169 -0.87584054 2.1374621 2.3009223e-39
-0.0415264 -0.87435943 2.1338475 2.1168911e-39
-0.032727759 -0.87067842 2.1248641 2.208728e-39
-0.024076914 -0.86970204 2.1224813 2.1168925e-39
-0.015580705 -0.87633538 2.1386697 1.8410259e-39
-0.0069321911 -0.88031417 2.1483798 1.7488317e-39
0.0017890949 -0.88131452 2.1508212 1.5648006e-39
0.010590467 -0.88736475 2.1655867 1.5644418e-39
0.019457474 -0.89093256 2.1742938 1.4726063e-39
0.028314428 -0.89195722 2.1767943 1.4726049e-39
0.037223924 -0.89375603 2.1811843 1.5648006e-39
0.046102881 -0.89427131 2.1824419 1.5651593e-39
0.055071507 -0.89607948 2.1868546 1.8410245e-39
0.064225182 -0.89997888 2.1963711 4.5128873e-39
0.073437475 -0.90364903 2.205328 6.0794857e-39
0.082967885 -0.91001087 2.2208538 6.2631581e-39
0.092360578 -0.91376352 2.2300119 6.3549922e-39
-2.76319 -1.9208884 4.734766 3.9604352e-39
-0.99180138 -0.72475237 1.7864301 4.2370193e-39
-0.97466189 -0.71747267 1.7684865 4.2370207e-39
-0.95742047 -0.71000934 1.7500904 4.2370221e-39
-0.95251954 -0.71165442 1.7541453 4.1455439e-39
-0.94605786 -0.71214944 1.7553654 4.237378e-39
-0.93828106 -0.71165442 1.7541453 4.4210504e-39
-0.93137759 -0.71181935 1.7545518 4.2370207e-39
-0.91914445 -0.70788211 1.7448469 3.5920128e-39
-0.90808654 -0.7047959 1.7372397 3.3147085e-39
-0.89917892 -0.70334339 1.7336594 3.0381202e-39
-0.89071506 -0.70221776 1.7308849 2.6693405e-39
-0.88107157 -0.7001369 1.7257558 3.1299557e-39
-0.87267512 -0.69902152 1.7230066 3.8671564e-39
-0.867459 -0.7004562 1.7265429 3.221431e-39
-0.86084443 -0.70077586 1.7273308 2.85301e-39
-0.85363925 -0.700616 1.7269368 3.0374027e-39
-0.84547329 -0.69965845 1.7245765 2.6693405e-39
-0.83694887 -0.69838572 1.7214395 2.7611759e-39
-0.83071792 -0.69902152 1.7230066 3.2210737e-39
-0.82654667 -0.70141596 1.7289087 3.1292354e-39
-0.82009166 -0.70189685 1.7300938 3.8657172e-39
-0.81307006 -0.70189685 1.7300938 4.7869505e-39
-0.80826485 -0.7038269 1.7348512 3.866076e-39
-0.80472755 -0.70690459 1.7424375 3.4061824e-39
-0.79968029 -0.70869875 1.7468599 2.7615375e-39
-0.79313964 -0.70918965 1.7480699 2.209084e-39
-0.7880466 -0.7109955 1.752521 2.209084e-39
-0.78292751 -0.71281052 1.7569948 2.1172499e-39
-0.77723968 -0.71413636 1.760263 1.8413819e-39
-0.77261049 -0.71646851 1.7660114 1.9332173e-39
-0.76615798 -0.71713763 1.7676607 2.8548107e-39
-0.76076013 -0.71881592 1.7717975 4.2366606e-39
-0.75675708 -0.72185677 1.7792928 4.6976373e-39
-0.75059414 -0.72287607 1.7818053 4.8816684e-39
-0.74564397 -0.72509456 1.7872735 5.0656982e-39
-0.74312693 -0.72974592 1.7987386 4.9738641e-39
-0.73986971 -0.73375547 1.8086218 4.9735053e-39
-1.12597 -1.2261479 3.0223117 5.1578938e-39
-1.204589 -1.3262092 3.2689512 5.1578938e-39
-1.2644827 -1.4076538 3.4697025 5.1578938e-39
-1.2544252 -1.4121841 3.4808693 5.2497307e-39
-1.2374532 -1.4089452 3.4728856 5.3419235e-39
-1.24332 -1.431935 3.5295527 5.2500894e-39
-1.2417309 -1.4467736 3.5661285 5.2500894e-39
-1.223799 -1.4426963 3.5560784 5.1582525e-39
-1.2249008 -1.4612277 3.6017559 5.3422836e-39
-1.2254406 -1.4795282 3.6468647 5.2504467e-39
-1.2218221 -1.4931942 3.6805496 5.3422836e-39
-1.2332646 -1.5258323 3.760999 5.3426438e-39
-1.2439548 -1.5583463 3.8411419 5.342285e-39
-1.2473509 -1.582432 3.9005105 5.342285e-39
-1.2534775 -1.6106453 3.970053 5.3426452e-39
-1.2538017 -1.6320406 4.02279 5.4344793e-39
-1.2494251 -1.6478007 4.0616364 5.4344793e-39
-1.2336025 -1.6486852 4.063817 5.5263134e-39
-1.2236778 -1.6575825 4.0857477 5.3426424e-39
-1.2136453 -1.6665765 4.1079168 5.2508069e-39
-1.1937346 -1.6620674 4.0968022 5.4348394e-39
-1.176471 -1.6611685 4.0945868 5.4348394e-39
-1.1548563 -1.6540121 4.0769472 5.5266749e-39
-1.1255813 -1.6355168 4.0313582 5.4344793e-39
-1.0998495 -1.6217004 3.9973025 5.4344807e-39
-1.0751117 -1.6089579 3.9658935 5.5263176e-39
-1.0534974 -1.6005734 3.9452271 5.5263162e-39
-1.0385681 -1.6022433 3.9493432 5.6185104e-39
-1.0241423 -1.6047547 3.9555333 5.5270336e-39
-1.0091431 -1.6064333 3.959671 5.5266721e-39
-0.99255359 -1.6055936 3.9576011 5.618509e-39
-0.98628742 -1.6217004 3.9973025 5.5263134e-39
-0.97624958 -1.6320406 4.02279 5.5266749e-39
-0.97389495 -1.6557955 4.0813427 5.5266749e-39
-0.97520506 -1.6867108 4.1575456 5.5266749e-39
-0.98650187 -1.736292 4.2797575 5.710706e-39
-0.97686332 -1.7501427 4.3138981 5.710706e-39
-0.95771813 -1.7471561 4.3065362 5.6181531e-39
-0.96157175 -1.7867949 4.4042411 5.6185104e-39
-0.93445575 -1.7692975 4.3611121 5.6185118e-39
-0.90890265 -1.7541407 4.3237524 5.5266749e-39
-0.88881654 -1.7491461 4.3114414 5.7103473e-39
-0.86736691 -1.7412134 4.2918882 5.6188719e-39
-0.84850508 -1.7382572 4.2846017 5.2504523e-39
-0.82970726 -1.735311 4.2773395 4.8813097e-39
-0.81188887 -1.7343311 4.2749243 5.3422878e-39
-0.79096603 -1.726532 4.2557001 5.7107074e-39
-0.7728253 -1.7245932 4.2509212 5.6185104e-39
-0.75727361 -1.7284752 4.2604899 5.618509e-39
-0.71659327 -1.6738422 4.1258259 5.5263148e-39
-0.69492531 -1.6620674 4.0968022 5.5263162e-39
-0.67829829 -1.6620674 4.0968022 5.5263162e-39
-0.64971763 -1.6320406 4.02279 5.7103459e-39
-0.21511532 -0.94333553 2.3252122 6.0787669e-39
-0.20650287 -0.94711703 2.334533 5.9872901e-39
-0.19333197 -0.9293496 2.2907386 5.8954546e-39
-0.18188861 -0.91851091 2.2640224 5.8958162e-39
-0.17233926 -0.91659224 2.2592931 5.9872929e-39
-0.16307253 -0.91604549 2.2579453 6.0794871e-39
-0.152996 -0.91061383 2.2445569 6.0784081e-39
-0.14375855 -0.90980464 2.2425625 4.9738641e-39
-0.1344977 -0.90872794 2.2399085 2.11761e-39
-0.1248529 -0.90471298 2.2300119 1.0127086e-39
-0.11505675 -0.89888805 2.2156544 7.361231e-40
-0.10547796 -0.8939175 2.2034025 9.2015283e-40
-0.09597674 -0.88874435 2.1906512 1.1956607e-39
-0.086460486 -0.88236153 2.1749184 2.4835143e-39
-0.077300429 -0.87857568 2.1655867 4.4156582e-39
-0.068121627 -0.87357807 2.1532681 3.4029482e-39
-0.058996603 -0.86790067 2.1392741 2.7600969e-39
-0.050229147 -0.86643171 2.1356533 2.85301e-39
-0.041467961 -0.86448085 2.1308446 2.8530142e-39
-0.032718576 -0.86181271 2.1242678 2.6686244e-39
-0.024083667 -0.86132938 2.1230764 2.4845933e-39
-0.015549957 -0.86594319 2.134449 2.1168911e-39
-0.0069086659 -0.86863703 2.141089 1.8410259e-39
0.0017815033 -0.86888272 2.1416948 1.7484702e-39
0.010557248 -0.87581992 2.1587942 1.7484716e-39
0.019412873 -0.88008612 2.1693096 1.6566375e-39
0.028225159 -0.88033837 2.1699314 1.4726063e-39
0.037116989 -0.88236153 2.1749184 1.3804107e-39
0.046023279 -0.88388503 2.1786735 1.4729637e-39
0.054992083 -0.88592458 2.1837008 1.7491876e-39
0.064225182 -0.89106482 2.1963711 3.5912939e-39
0.073501706 -0.89548117 2.2072568 5.8958148e-39
0.083187506 -0.90338248 2.2267325 6.1713212e-39
0.093406066 -0.91495395 2.255255 6.4468305e-39
-2.8432052 -1.9567399 4.8718729 3.9604352e-39
-0.98714286 -0.71413195 1.7780392 4.0526294e-39
-0.97171116 -0.70814484 1.7631325 4.0526308e-39
-0.95786333 -0.70323169 1.7508998 4.0526308e-39
-0.95251954 -0.70453519 1.7541453 3.8693172e-39
-0.94583857 -0.70486182 1.7549585 3.9611527e-39
-0.93871605 -0.70486182 1.7549585 4.2370207e-39
-0.93029964 -0.70388281 1.752521 3.6842084e-39
-0.91745287 -0.69951087 1.7416358 2.7626151e-39
-0.90621501 -0.69630724 1.7336594 2.6700579e-39
-0.89732963 -0.69487518 1.7300938 2.7622535e-39
-0.88888609 -0.6937654 1.7273308 2.3934738e-39
-0.87886792 -0.69139922 1.7214395 3.1295969e-39
-0.87128705 -0.69092792 1.720266 3.9586317e-39
-0.86509156 -0.69155645 1.721831 3.7735216e-39
-0.85829872 -0.69171381 1.7222227 3.4980151e-39
-0.851309 -0.69171381 1.7222227 3.5902121e-39
-0.8431685 -0.69077098 1.7198752 3.4980179e-39
-0.83523965 -0.68998724 1.7179239 3.4976578e-39
-0.82901984 -0.6906141 1.7194846 3.6820462e-39
-0.8252275 -0.69329089 1.7261493 4.049747e-39
