# .PCD v0.7 - Point Cloud Data file format
VERSION 0.7
FIELDS x y z rgb
SIZE 4 4 4 4
TYPE F F F F
COUNT 1 1 1 1
WIDTH 1041
HEIGHT 1
VIEWPOINT 0 0 0 1 0 0 0
POINTS 1041
DATA ascii
0.6334272 0.96209425 2.3935792 5.1615175e-39
0.64395595 0.96331245 2.39661 4.1477215e-39
0.65120894 0.95966697 2.3875403 4.1473614e-39
0.65799379 0.95544869 2.3770459 4.2395556e-39
0.66182286 0.94712234 2.3563309 4.0551658e-39
0.66476536 0.93778247 2.3330941 4.0551686e-39
0.66846627 0.92975986 2.3131349 3.962973e-39
0.67517251 0.9260816 2.3039837 3.9629744e-39
0.68724215 0.92975986 2.3131349 3.9626156e-39
0.69855088 0.93232352 2.3195131 3.8711361e-39
0.71145225 0.93691629 2.3309393 3.6874637e-39
0.72448128 0.94155449 2.3424785 3.6867434e-39
0.73855859 0.9474172 2.3570645 3.8707759e-39
0.75352049 0.95425028 2.3740642 4.0544455e-39
0.77506477 0.96914142 2.4111116 4.0544497e-39
0.78535056 0.96975911 2.4126484 4.1470069e-39
0.79161066 0.96545178 2.4019322 3.9633359e-39
0.80034328 0.96422815 2.3988881 3.7793048e-39
0.81136465 0.9657582 2.4026947 3.7800208e-39
0.82557011 0.9709968 2.4157279 4.0558874e-39
0.83564103 0.97130674 2.4164989 4.7008967e-39
0.84410137 0.96975911 2.4126484 4.6083424e-39
0.85334927 0.96914142 2.4111116 4.1480817e-39
0.86121494 0.9669857 2.4057486 4.3328317e-39
0.87070203 0.96667856 2.4049845 4.3328331e-39
0.87823087 0.96422815 2.3988881 4.7012583e-39
0.88656229 0.96270293 2.3950937 5.3473521e-39
0.89685023 0.96331245 2.39661 5.3484227e-39
0.9054305 0.96209425 2.3935792 4.8863656e-39
0.91341221 0.96027267 2.3890471 5.5310203e-39
0.92369115 0.96087909 2.3905559 5.9916369e-39
0.93309867 0.96057576 2.3898013 5.3462675e-39
0.94339329 0.96118259 2.3913109 5.0700408e-39
0.95069623 0.95875996 2.3852837 4.9789213e-39
0.9591682 0.95755321 2.3822815 5.7161277e-39
0.96670747 0.95544869 2.3770459 5.7161333e-39
0.97238582 0.95156473 2.367383 5.7168521e-39
0.97923809 0.94889432 2.3607392 5.6242922e-39
0.98299539 0.94330567 2.3468354 5.5313777e-39
0.99406081 0.94476998 2.3504784 5.9927187e-39
1.0042238 0.94535697 2.3519387 5.99236e-39
1.0128253 0.94447672 2.3497488 5.3480696e-39
1.0198296 0.94213748 2.3439291 5.5324581e-39
1.0283874 0.94126326 2.341754 5.5324525e-39
1.0378915 0.94126326 2.341754 5.8090351e-39
1.0473956 0.94126326 2.341754 5.2544278e-39
1.0568995 0.94126326 2.341754 5.0700394e-39
1.0670638 0.94184589 2.3432035 4.7023373e-39
1.0759077 0.94126326 2.341754 5.0711212e-39
1.0904713 0.9456507 2.3526697 5.2551523e-39
1.0962722 0.94242924 2.344655 5.1633196e-39
1.1061306 0.94272119 2.3453813 5.0714799e-39
1.1159952 0.94301331 2.3461082 5.3480668e-39
1.1251682 0.94272119 2.3453813 5.9008818e-39
1.1364473 0.94418371 2.3490198 5.8086848e-39
1.1452702 0.94359815 2.347563 5.7157717e-39
1.1565909 0.94506335 2.3512082 5.5317406e-39
1.167221 0.94594467 2.3534009 5.6239348e-39
1.1808099 0.94919026 2.3614757 5.9005217e-39
1.1892811 0.94830292 2.359268 6.1771072e-39
1.199978 0.94919026 2.3614757 6.1774645e-39
1.2144867 0.95305485 2.3710902 5.9934292e-39
1.2237266 0.9527564 2.3703477 5.5317336e-39
1.2372203 0.95574874 2.3777924 5.7157689e-39
1.2445254 0.95395112 2.3733201 5.6242936e-39
1.2561265 0.95544869 2.3770459 5.8086862e-39
1.2697605 0.95845795 2.3845325 5.8086862e-39
1.2822652 0.96057576 2.3898013 6.1774701e-39
1.287089 0.95695096 2.3807833 6.4533326e-39
1.2983847 0.95815617 2.3837817 6.0856304e-39
1.3084712 0.95845795 2.3845325 6.2711063e-39
-1.5052519 0.98551804 2.4273455 7.5600402e-39
-1.5002104 0.98868793 2.435153 7.2838107e-39
-1.4922471 0.98996156 2.4382901 7.8355411e-39
-1.4938984 0.99767303 2.4572835 9.7705732e-39
-1.4820013 0.99637949 2.4540975 8.9429733e-39
-1.4701351 0.99508923 2.4509196 7.8369859e-39
-1.4649304 0.99832112 2.4588797 7.5600402e-39
-1.4554237 0.99864542 2.4596786 6.8228339e-39
-1.4402938 0.99508923 2.4509196 7.3756476e-39
-1.4368588 0.99961972 2.4620783 8.5741936e-39
-1.4190214 0.99412376 2.4485416 8.4816378e-39
-1.4141147 0.99767303 2.4572835 9.2181182e-39
-1.3955357 0.99155831 2.4422228 9.5883385e-39
-1.3825022 0.98932433 2.4367206 8.3890806e-39
-1.3668934 0.98520213 2.4265676 7.4674873e-39
-1.3548739 0.98362583 2.4226851 6.8224752e-39
-1.3454719 0.98394066 2.4234605 7.3760063e-39
-1.3313745 0.98080111 2.4157279 7.6525932e-39
-1.3241051 0.98268247 2.4203615 7.4689208e-39
-1.3168079 0.98457098 2.4250131 8.4816406e-39
-1.304459 0.98268247 2.4203615 7.6522401e-39
-1.2967086 0.98425573 2.4242365 7.3760091e-39
-1.2868698 0.98425573 2.4242365 7.1912605e-39
-1.2794892 0.98615038 2.4289031 7.467846e-39
-1.2680042 0.98488647 2.4257901 7.8366285e-39
-1.257756 0.98457098 2.4250131 7.9270235e-39
-1.2415512 0.9795509 2.4126484 8.2046894e-39
-1.2333316 0.98080111 2.4157279 8.1128539e-39
-1.2223572 0.97986317 2.4134176 8.3890821e-39
-1.2102474 0.97799259 2.4088104 8.2039705e-39
-1.2000895 0.97768152 2.4080441 8.6638697e-39
-1.1891816 0.97674948 2.4057486 8.9408139e-39
-1.1782945 0.97581929 2.4034574 8.4809133e-39
-1.1666882 0.97427279 2.3996484 8.0199394e-39
-1.1558501 0.97334725 2.3973689 8.1117749e-39
-1.1450325 0.97242349 2.3950937 7.5596759e-39
-1.1356713 0.97273123 2.3958516 7.6522331e-39
-1.1291636 0.97550958 2.4026947 8.2972438e-39
-1.1229761 0.97861528 2.4103441 8.2050439e-39
-1.1096607 0.97550958 2.4026947 8.6656647e-39
-1.0988632 0.97458172 2.4004092 8.9418985e-39
-1.084993 0.97088778 2.3913109 8.3894506e-39
-1.0780118 0.97334725 2.3973689 8.0213799e-39
-1.072016 0.97674948 2.4057486 7.6522289e-39
-1.0652989 0.9795509 2.4126484 7.098695e-39
-1.0541633 0.97830385 2.4095769 7.0065021e-39
-1.048388 0.98205453 2.4188149 7.5586039e-39
-1.0346047 0.97830385 2.4095769 7.3752861e-39
-1.0313905 0.98457098 2.4250131 8.2986843e-39
-1.0182869 0.98142743 2.4172704 8.2972466e-39
-1.015937 0.98868793 2.435153 7.7444287e-39
-1.0025069 0.98520213 2.4265676 8.3880016e-39
-0.99713284 0.98964286 2.437505 9.5847456e-39
-0.98281026 0.98520213 2.4265676 8.5741852e-39
-0.97327393 0.98551804 2.4273455 6.915747e-39
-0.96311367 0.98520213 2.4265676 9.1252192e-39
-0.95448911 0.98646683 2.4296825 1.0969139e-38
-0.94462818 0.98646683 2.4296825 1.0322681e-38
-0.93446732 0.98615038 2.4289031 9.8627688e-39
-0.92224258 0.98362583 2.4226851 9.4957827e-39
-0.9135794 0.98488647 2.4257901 9.7720165e-39
-0.89883834 0.9795509 2.4126484 9.0348046e-39
-0.89217401 0.9829967 2.4211354 8.757859e-39
-0.87981552 0.98017561 2.4141872 9.8642135e-39
-0.86725199 0.97705996 2.4065132 9.589063e-39
-0.8572126 0.97674948 2.4057486 9.2206364e-39
-0.8469106 0.97612917 2.4042206 8.6660263e-39
-0.83848435 0.97768152 2.4080441 8.5727474e-39
-0.82608372 0.97458172 2.4004092 8.5731034e-39
-0.81998134 0.97892696 2.4111116 8.0195695e-39
-0.81148797 0.98048824 2.4149573 8.1132028e-39
-0.79939193 0.97768152 2.4080441 9.4028682e-39
-0.79087657 0.97923881 2.4118798 9.2177707e-39
-0.77910227 0.97674948 2.4057486 8.0199366e-39
-0.77007258 0.97768152 2.4080441 8.204688e-39
-0.76492208 0.98362583 2.4226851 8.6656633e-39
-0.75436538 0.98268247 2.4203615 1.0231906e-38
-0.7445423 0.98268247 2.4203615 9.4947009e-39
-0.73424971 0.98205453 2.4188149 9.401785e-39
-0.72768772 0.98646683 2.4296825 9.3099453e-39
-0.71507299 0.98268247 2.4203615 7.928813e-39
-0.70434916 0.98142743 2.4172704 9.4957771e-39
-0.69453859 0.98142743 2.4172704 1.0141149e-38
-0.68494678 0.98174089 2.4180424 9.3106712e-39
-0.67384177 0.97986317 2.4134176 9.2181168e-39
-0.66383523 0.9795509 2.4126484 9.6798195e-39
-0.65155184 0.97581929 2.4034574 9.3110341e-39
-0.64343148 0.97830385 2.4095769 9.4957855e-39
-0.63425773 0.97923881 2.4118798 9.4039486e-39
-0.6242702 0.97892696 2.4111116 8.2054012e-39
-0.61156315 0.97427279 2.3996484 8.2979612e-39
-0.60412186 0.97799259 2.4088104 9.1266471e-39
-0.5932132 0.97612917 2.4042206 9.1277191e-39
-0.5830853 0.97550958 2.4026947 8.4830713e-39
-0.57188195 0.97303915 2.39661 9.3121173e-39
-0.56411958 0.97643924 2.4049845 9.405392e-39
-0.5538311 0.97550958 2.4026947 8.9440551e-39
-0.54390711 0.97520012 2.4019322 9.035892e-39
-0.53348178 0.9739641 2.3988881 8.2965235e-39
-0.52159727 0.96996868 2.3890471 8.2050439e-39
-0.51173979 0.96966267 2.3882935 9.3106726e-39
-0.50220525 0.96996868 2.3890471 9.4032172e-39
-0.49219862 0.96935689 2.3875403 1.0231546e-38
-0.48235661 0.9690513 2.3867877 9.9553204e-39
-0.47386488 0.97150147 2.3928225 8.4801889e-39
-0.4643003 0.97180861 2.3935792 8.9429733e-39
-0.45544985 0.97365558 2.3981283 9.6830607e-39
-0.44529384 0.97273123 2.3958516 1.0138647e-38
-0.43681431 0.97550958 2.4026947 1.0508868e-38
-0.42611629 0.97334725 2.3973689 8.5756271e-39
-0.41678244 0.97427279 2.3996484 1.0047509e-38
-0.40756011 0.97550958 2.4026947 1.1153145e-38
-0.39856765 0.97737062 2.4072785 8.7585876e-39
-0.38855055 0.97674948 2.4057486 9.0362493e-39
-0.37866643 0.97643924 2.4049845 8.3916016e-39
-0.36996347 0.97923881 2.4118798 8.2986801e-39
-0.35971642 0.97799259 2.4088104 8.8504091e-39
-0.348941 0.97520012 2.4019322 9.4032284e-39
-0.33994764 0.97737062 2.4072785 9.1273674e-39
-0.33017763 0.97737062 2.4072785 9.7720179e-39
-0.32122475 0.97986317 2.4134176 9.9567707e-39
-0.31162852 0.98048824 2.4149573 9.2199203e-39
-0.30048546 0.97612917 2.4042206 9.0373381e-39
-0.29165405 0.97923881 2.4118798 9.2199231e-39
-0.28186539 0.97923881 2.4118798 8.9433306e-39
-0.27312079 0.9829967 2.4211354 9.4939863e-39
-0.2623716 0.9795509 2.4126484 1.0139344e-38
-0.25298291 0.98111415 2.4164989 9.308516e-39
-0.24411048 0.98488647 2.4257901 9.3110426e-39
-0.23479195 0.98710042 2.4312429 1.0880878e-38
-0.22485247 0.9867835 2.4304626 9.8652855e-39
-0.21430042 0.98362583 2.4226851 8.7582163e-39
-0.20427179 0.98268247 2.4203615 9.4035955e-39
-0.19444869 0.98268247 2.4203615 8.9451313e-39
-0.18374446 0.97799259 2.4088104 9.3142669e-39
-0.17413446 0.97892696 2.4111116 8.758952e-39
-0.16403545 0.97705996 2.4065132 8.2979612e-39
-0.15412159 0.97612917 2.4042206 7.8369789e-39
-0.14482389 0.97923881 2.4118798 8.295799e-39
-0.13494924 0.97861528 2.4103441 8.8507552e-39
-0.12488847 0.97643924 2.4049845 8.6635025e-39
-0.11487235 0.97427279 2.3996484 9.4010592e-39
-0.1051 0.9739641 2.3988881 7.3745644e-39
-0.095303655 0.97334725 2.3973689 8.2064929e-39
-0.085982278 0.97799259 2.4088104 7.8384236e-39
-0.07632748 0.9795509 2.4126484 8.5727502e-39
-0.06657812 0.98017561 2.4141872 9.4017906e-39
-0.056943499 0.9829967 2.4211354 9.0337214e-39
-0.047042038 0.98142743 2.4172704 9.7727298e-39
-0.0370658 0.97705996 2.4065132 1.2077274e-38
-0.027324961 0.97799259 2.4088104 9.2191958e-39
-0.017520869 0.97643924 2.4049845 9.5840295e-39
-0.0077626444 0.97674948 2.4057486 8.1124966e-39
0.0020158817 0.98394066 2.4234605 7.4682048e-39
0.011840189 0.9829967 2.4211354 7.4678404e-39
0.021638749 0.98174089 2.4180424 7.3756476e-39
0.03143236 0.98111415 2.4164989 8.573109e-39
0.041108571 0.97799259 2.4088104 9.4932702e-39
0.050707322 0.97458172 2.4004092 7.8351978e-39
0.060641713 0.97768152 2.4080441 8.0210198e-39
0.070526987 0.97923881 2.4118798 7.2823674e-39
0.08021345 0.97799259 2.4088104 7.0054203e-39
0.089989662 0.97799259 2.4088104 8.0206569e-39
0.099829406 0.97861528 2.4103441 7.4664055e-39
0.10878067 0.97119451 2.3920665 6.8214074e-39
0.11852638 0.97150147 2.3928225 7.5600473e-39
0.12811625 0.97058123 2.3905559 6.9139492e-39
0.13764453 0.96935689 2.3875403 7.0057889e-39
0.1473809 0.96966267 2.3882935 6.7291978e-39
0.15792075 0.97489083 2.4011705 6.3596936e-39
0.16798563 0.97674948 2.4057486 7.0054287e-39
0.17752378 0.97550958 2.4026947 6.2700189e-39
0.18715638 0.97489083 2.4011705 7.0990635e-39
0.19815855 0.98111415 2.4164989 7.1901815e-39
0.2076346 0.9795509 2.4126484 7.3745742e-39
0.21833089 0.98362583 2.4226851 7.743714e-39
0.22816342 0.98362583 2.4226851 6.8221193e-39
0.23791982 0.98331118 2.42191 6.2696714e-39
0.2479872 0.98425573 2.4242365 6.6380854e-39
0.25799125 0.98488647 2.4257901 7.7433483e-39
0.26681051 0.98111415 2.4164989 7.1905417e-39
0.27600127 0.97892696 2.4111116 6.8228325e-39
0.28596896 0.9795509 2.4126484 6.3622089e-39
0.29613826 0.98080111 2.4157279 6.3629362e-39
0.30467874 0.97674948 2.4057486 5.5321035e-39
0.31544489 0.97986317 2.4134176 6.085636e-39
0.32451567 0.97768152 2.4080441 6.17711e-39
0.333758 0.97612917 2.4042206 5.8086876e-39
0.34406188 0.97768152 2.4080441 5.7164878e-39
0.35598633 0.98362583 2.4226851 6.5458883e-39
0.36699322 0.9867835 2.4304626 6.7295565e-39
0.37673637 0.98646683 2.4296825 7.1901871e-39
0.38634932 0.98583406 2.428124 6.2693042e-39
0.39481106 0.98236841 2.4195881 6.3604209e-39
0.40167847 0.97520012 2.4019322 5.8997986e-39
0.40986636 0.97150147 2.3928225 5.716485e-39
0.41825578 0.96844065 2.3852837 5.3462647e-39
0.42780173 0.96813565 2.3845325 5.8990784e-39
0.43679154 0.96661341 2.3807833 4.2391969e-39
0.44589314 0.96539909 2.3777924 4.5147006e-39
0.451713 0.95728141 2.3577983 4.5147034e-39
0.45658973 0.94754338 2.3338134 4.5150635e-39
0.46193209 0.93914777 2.3131349 4.4228707e-39
0.46760547 0.93174618 2.2949047 4.1470069e-39
0.47120607 0.9205842 2.2674127 3.9633359e-39
0.49800798 0.95430946 2.3504784 3.7793062e-39
0.5134455 0.96539909 2.3777924 3.5949135e-39
0.52807134 0.97458172 2.4004092 3.5023563e-39
0.53509897 0.96966267 2.3882935 3.2261268e-39
0.55087411 0.98048824 2.4149573 3.226124e-39
0.56067526 0.98048824 2.4149573 3.5027081e-39
0.57747614 0.99251878 2.4445887 3.5941834e-39
0.58987367 0.99670255 2.4548934 3.5019906e-39
0.59578001 0.98996156 2.4382901 3.7785803e-39
0.60199219 0.98394066 2.4234605 3.8704186e-39
0.6083228 0.97830385 2.4095769 3.7793048e-39
0.61477584 0.97303915 2.39661 3.6871105e-39
0.62233549 0.96966267 2.3882935 3.5037983e-39
0.63103312 0.96813565 2.3845325 4.7023401e-39
0.6419239 0.96996868 2.3890471 4.1488019e-39
0.64957017 0.96691751 2.3815322 3.6878224e-39
0.65737462 0.9641878 2.3748088 3.9640477e-39
0.66058928 0.95490235 2.3519387 4.2391969e-39
0.66394693 0.94608516 2.3302219 4.3313939e-39
0.66846627 0.93914777 2.3131349 4.3313967e-39
0.67353272 0.93316048 2.2983882 4.3317597e-39
0.68514878 0.93628716 2.3060892 4.239564e-39
0.69855088 0.94173735 2.3195131 4.0562504e-39
0.71342909 0.94900608 2.3374162 3.8722165e-39
0.72560382 0.95253509 2.3461082 3.8722151e-39
0.74552172 0.96600586 2.3792868 4.0558846e-39
0.7604357 0.97273123 2.3958516 4.2399144e-39
0.77704453 0.98142743 2.4172704 4.4235882e-39
0.78710639 0.98174089 2.4180424 4.5154265e-39
0.79362494 0.97768152 2.4080441 4.515788e-39
0.80212241 0.97612917 2.4042206 4.5165083e-39
0.81368876 0.97830385 2.4095769 4.4250315e-39
0.82530677 0.98048824 2.4149573 4.2409962e-39
0.83564103 0.98111415 2.4164989 4.3328331e-39
0.84302676 0.97830385 2.4095769 4.9767661e-39
0.85280609 0.97830385 2.4095769 4.7923749e-39
0.86012167 0.97550958 2.4026947 4.6094186e-39
0.86821985 0.97365558 2.3981283 4.6097815e-39
0.87656438 0.97211599 2.3943362 4.8852908e-39
0.88516212 0.97088778 2.3913109 4.6090626e-39
0.89458477 0.97058123 2.3905559 4.5179418e-39
0.90314621 0.96935689 2.3875403 4.7023331e-39
0.91082543 0.96722174 2.3822815 4.8860082e-39
0.92107368 0.96783084 2.3837817 5.2547894e-39
0.93045533 0.9675262 2.3830314 5.3473451e-39
0.9401269 0.9675262 2.3830314 5.8998028e-39
0.94800812 0.96570241 2.3785393 5.071117e-39
0.95645952 0.96449035 2.3755541 5.2551481e-39
0.96307892 0.96147346 2.3681235 5.8079659e-39
0.96754509 0.95638788 2.3555977 5.9941565e-39
0.97316903 0.95253509 2.3461082 5.8086848e-39
0.97633719 0.94637644 2.3309393 5.5313777e-39
0.98579735 0.94637644 2.3309393 5.7157689e-39
0.99342239 0.94463146 2.3266413 5.6235733e-39
1.0028651 0.94463146 2.3266413 5.4395422e-39
1.0088973 0.94144893 2.3188026 5.3484227e-39
1.0179964 0.94116068 2.3180928 6.0859864e-39
1.0286644 0.94231474 2.3209352 6.4544074e-39
1.0374478 0.94173735 2.3195131 5.7164836e-39
1.0471824 0.94202596 2.320224 5.0711184e-39
1.0572472 0.94260371 2.3216469 4.8874474e-39
1.0656892 0.94173735 2.3195131 5.0714799e-39
1.0797343 0.94579405 2.329505 4.8867285e-39
1.0871816 0.94405121 2.3252122 5.1629581e-39
1.098305 0.94550312 2.3287883 5.6239376e-39
1.1080973 0.94579405 2.329505 5.4395422e-39
1.1168644 0.94521236 2.3280723 6.1760268e-39
1.1280473 0.94666791 2.3316572 6.0841899e-39
1.1350634 0.94463146 2.3266413 5.5317378e-39
1.1459148 0.94579405 2.329505 5.5313805e-39
1.1564366 0.94666791 2.3316572 5.5317392e-39
1.1669779 0.94754338 2.3338134 5.808682e-39
1.1771755 0.94812793 2.3352532 6.1771058e-39
1.1895887 0.95047331 2.3410299 6.4536955e-39
1.2039293 0.95430946 2.3504784 6.3618572e-39
1.2142227 0.95490235 2.3519387 5.6246495e-39
1.2283472 0.95847541 2.3607392 5.6253698e-39
1.2387009 0.95907354 2.3622124 6.1774659e-39
1.2498478 0.96027201 2.3651643 6.0845542e-39
1.2637898 0.96358329 2.3733201 5.8086862e-39
1.2758217 0.96539909 2.3777924 6.2703832e-39
1.2822503 0.96297956 2.3718328 7.007228e-39
1.2939032 0.96449035 2.3755541 6.2696616e-39
1.3051826 0.96570241 2.3785393 6.6395231e-39
-1.4990041 0.991238 2.4172704 7.8369845e-39
-1.4915746 0.99282295 2.4211354 7.3760063e-39
-1.477496 0.98997366 2.4141872 8.0199352e-39
-1.4756976 0.99536943 2.4273455 8.665306e-39
-1.4663162 0.99568868 2.428124 7.7455091e-39
-1.4559947 0.99536943 2.4273455 7.3763679e-39
-1.4512615 0.99889231 2.4359365 7.375649e-39
-1.4423033 0.9995355 2.437505 7.0983418e-39
-1.4241574 0.99377638 2.4234605 8.4805532e-39
-1.4197754 0.99760842 2.4328055 8.8504133e-39
-1.4017937 0.99187136 2.4188149 8.573109e-39
-1.3946503 0.99377638 2.4234605 8.3887121e-39
-1.3781972 0.9890275 2.4118798 8.0202911e-39
-1.3684084 0.9890275 2.4118798 7.8359069e-39
-1.3543054 0.98588675 2.4042206 7.2845338e-39
-1.3419908 0.98401183 2.3996484 6.6398846e-39
-1.3318297 0.98370004 2.3988881 7.4685635e-39
-1.3200024 0.98214406 2.3950937 7.9291815e-39
-1.3106965 0.98245484 2.3958516 8.8504217e-39
-1.3063471 0.98651332 2.4057486 8.8515007e-39
-1.2953484 0.98557377 2.4034574 8.1135756e-39
-1.2888672 0.98808318 2.4095769 7.929543e-39
-1.2799027 0.98871255 2.4111116 7.4692866e-39
-1.2733613 0.991238 2.4172704 7.5596857e-39
-1.261939 0.98997366 2.4141872 7.9273822e-39
-1.2497499 0.98808318 2.4095769 8.2961619e-39
-1.2309598 0.98090279 2.3920665 8.2965221e-39
-1.2212515 0.98090279 2.3920665 8.6645871e-39
-1.2096323 0.97935563 2.3882935 8.5734649e-39
-1.1984271 0.9781214 2.3852837 7.6515142e-39
-1.1865035 0.97627592 2.3807833 7.9266634e-39
-1.1735197 0.97352064 2.3740642 8.0202995e-39
-1.1616988 0.97169244 2.3696058 8.0206611e-39
-1.1506412 0.97047746 2.366643 7.8355467e-39
-1.1403232 0.9698711 2.3651643 7.7440658e-39
-1.131431 0.97047746 2.366643 7.5607535e-39
-1.1232305 0.97169244 2.3696058 7.5600416e-39
-1.1188662 0.97627592 2.3807833 7.9284654e-39
-1.1109505 0.97781336 2.3845325 7.743714e-39
-1.0985049 0.97535574 2.3785393 8.0206583e-39
-1.086803 0.97352064 2.3740642 8.4816392e-39
-1.0724596 0.96926546 2.3636875 8.4820022e-39
-1.0631983 0.96956819 2.3644257 8.206853e-39
-1.0549201 0.97078091 2.367383 7.652596e-39
-1.0469489 0.97230107 2.3710902 7.3763636e-39
-1.036352 0.9713884 2.3688645 7.7444301e-39
-1.0293145 0.97382599 2.3748088 8.388366e-39
-1.0164878 0.97078091 2.367383 8.7582191e-39
-1.0132163 0.97689027 2.3822815 8.7592953e-39
-1.003232 0.976583 2.3815322 8.2976025e-39
-0.99985689 0.98276585 2.39661 7.8369831e-39
-0.98887807 0.98152304 2.3935792 8.478398e-39
-0.98382932 0.98619992 2.4049845 9.3081545e-39
-0.97221559 0.9843238 2.4004092 8.8496903e-39
-0.96308416 0.9849484 2.4019322 8.5741894e-39
-0.95545775 0.98714066 2.4072785 9.0337382e-39
-0.94598854 0.98745465 2.4080441 9.124129e-39
-0.93830454 0.98965806 2.4134176 1.0229393e-38
-0.92850965 0.98965806 2.4134176 1.0599253e-38
-0.91550446 0.98619992 2.4049845 1.0323747e-38
-0.90689611 0.98745465 2.4080441 9.2177679e-39
-0.89229822 0.98214406 2.3950937 8.7582261e-39
-0.88509774 0.9849484 2.4019322 9.127366e-39
-0.87285715 0.98214406 2.3950937 1.0049325e-38
-0.86041462 0.97904676 2.3875403 9.497589e-39
-0.85126162 0.97966468 2.3890471 8.9436922e-39
-0.84130013 0.97935563 2.3882935 8.2968878e-39
-0.83344764 0.98152304 2.3935792 8.2972381e-39
-0.82113713 0.97842968 2.3860354 8.5766935e-39
-0.81530762 0.98307705 2.3973689 7.7458622e-39
-0.80685532 0.98463601 2.4011705 8.3901526e-39
-0.79559612 0.98276585 2.39661 8.6660263e-39
-0.78686577 0.98401183 2.3996484 8.6653116e-39
-0.77393776 0.97997391 2.3898013 8.4809175e-39
-0.76399755 0.97966468 2.3890471 7.927385e-39
-0.75885129 0.98557377 2.4034574 9.2170392e-39
-0.74885905 0.98526096 2.4026947 1.0322308e-38
-0.73887318 0.9849484 2.4019322 9.2184756e-39
-0.72889364 0.98463601 2.4011705 9.1259226e-39
-0.72304684 0.98997366 2.4141872 8.7578618e-39
-0.70985347 0.98526096 2.4026947 8.8511308e-39
-0.69921446 0.98401183 2.3996484 9.4961401e-39
-0.68947542 0.98401183 2.3996484 9.1280848e-39
-0.67995191 0.9843238 2.4004092 8.0199366e-39
-0.66999733 0.98401183 2.3996484 8.8493413e-39
-0.66109645 0.98526096 2.4026947 9.4961513e-39
-0.6484639 0.98090279 2.3920665 8.5756257e-39
-0.6405772 0.98370004 2.3988881 8.5731146e-39
-0.63184226 0.98526096 2.4026947 8.8497001e-39
-0.62169629 0.98463601 2.4011705 8.2046908e-39
-0.60866928 0.97935563 2.3882935 8.8493399e-39
-0.60144281 0.98338842 2.3981283 9.5879798e-39
-0.59114826 0.98245484 2.3958516 9.4957813e-39
-0.58068955 0.98121279 2.3928225 9.4035885e-39
-0.56971776 0.97904676 2.3875403 9.8649296e-39
-0.56179959 0.98214406 2.3950937 8.297971e-39
-0.55120713 0.98059297 2.3913109 8.3926876e-39
-0.54150194 0.98059297 2.3913109 8.9447726e-39
-0.53129327 0.97966468 2.3890471 8.7582219e-39
-0.51914001 0.97504944 2.3777924 8.943339e-39
-0.50869083 0.97352064 2.3740642 9.4957925e-39
-0.49905565 0.97352064 2.3740642 1.0049315e-38
-0.48834851 0.9713884 2.3688645 9.8624115e-39
-0.47888425 0.97169244 2.3696058 9.7716466e-39
-0.4698554 0.97291046 2.3725762 8.4798301e-39
-0.46008205 0.97260571 2.3718328 9.0330137e-39
-0.4513042 0.97443736 2.3762996 9.4961513e-39
-0.44138286 0.97382599 2.3748088 9.4950765e-39
-0.43283078 0.97627592 2.3807833 7.7437126e-39
-0.42237139 0.97443736 2.3762996 7.6525876e-39
-0.41324595 0.97566229 2.3792868 1.1153844e-38
-0.40435201 0.97750545 2.3837817 1.0416284e-38
-0.39517507 0.97873813 2.3867877 8.6649431e-39
-0.38560978 0.97904676 2.3875403 9.1262884e-39
-0.37556458 0.9781214 2.3852837 1.0141525e-38
-0.36692426 0.98090279 2.3920665 1.0143672e-38
-0.357216 0.98090279 2.3920665 9.311753e-39
-0.34532559 0.97474331 2.3770459 9.0344431e-39
-0.33599478 0.97566229 2.3792868 9.402871e-39
-0.32623583 0.97535574 2.3785393 9.4968645e-39
-0.31638369 0.97474331 2.3770459 8.8522322e-39
-0.30664012 0.97443736 2.3762996 9.4965072e-39
-0.29615924 0.97169244 2.3696058 1.0048257e-38
-0.28753206 0.97504944 2.3777924 9.0355333e-39
-0.27814379 0.97596902 2.3800349 9.1273575e-39
-0.26933104 0.97904676 2.3875403 9.2181154e-39
-0.25906926 0.97689027 2.3822815 9.6801684e-39
-0.24932225 0.976583 2.3815322 9.0340885e-39
-0.2414033 0.98370004 2.3988881 8.8504287e-39
-0.23247762 0.98714066 2.4072785 9.8674463e-39
-0.22327557 0.98965806 2.4134176 9.3124677e-39
-0.21314093 0.98808318 2.4095769 8.7578632e-39
-0.2032969 0.98776883 2.4088104 8.6667465e-39
-0.19352068 0.98776883 2.4088104 8.3894422e-39
-0.18252492 0.98121279 2.3928225 9.5879812e-39
-0.17270441 0.98059297 2.3913109 1.0782948e-38
-0.162486 0.97750545 2.3837817 8.2054111e-39
-0.15261914 0.97627592 2.3807833 8.9443998e-39
-0.14327206 0.97842968 2.3860354 8.2968766e-39
-0.13350412 0.97781336 2.3845325 8.387996e-39
-0.12367062 0.976583 2.3815322 9.3085104e-39
-0.113612 0.97321546 2.3733201 1.0692147e-38
-0.10397981 0.97321546 2.3733201 7.837339e-39
-0.094141051 0.97108454 2.3681235 8.4816448e-39
-0.084901758 0.97535574 2.3785393 8.7578618e-39
-0.07550934 0.97873813 2.3867877 9.0344529e-39
-0.065947242 0.98059297 2.3913109 8.3897981e-39
-0.056491852 0.9849484 2.4019322 8.1142776e-39
-0.046713907 0.9843238 2.4004092 8.0199366e-39
-0.036831651 0.98059297 2.3913109 8.6645885e-39
-0.027143601 0.98121279 2.3928225 8.2032461e-39
-0.017360937 0.97719777 2.3830314 7.8362712e-39
-0.0076966104 0.9781214 2.3852837 7.5596829e-39
0.001997974 0.9849484 2.4019322 7.1908976e-39
0.011757469 0.98588675 2.4042206 7.6518715e-39
0.021494582 0.9849484 2.4019322 7.3752875e-39
0.03120329 0.98370004 2.3988881 7.3752861e-39
0.040822823 0.98090279 2.3920665 9.1266429e-39
0.050340224 0.97719777 2.3830314 8.6645927e-39
0.06012537 0.97904676 2.3875403 8.0195863e-39
0.069947615 0.98090279 2.3920665 7.4664069e-39
0.079655878 0.98090279 2.3920665 7.742991e-39
0.089392386 0.98121279 2.3928225 8.112135e-39
0.099166408 0.98183346 2.3943362 7.0972642e-39
0.10809759 0.97474331 2.3770459 6.915754e-39
0.11756034 0.97321546 2.3733201 7.8373516e-39
0.12699348 0.97169244 2.3696058 7.0987076e-39
0.13673897 0.97260571 2.3718328 7.8366285e-39
0.14627346 0.97199667 2.3703477 7.098339e-39
0.1563832 0.97504944 2.3777924 7.5585969e-39
0.16613789 0.97566229 2.3792868 7.0065063e-39
0.17579429 0.97566229 2.3792868 6.6388042e-39
0.18504362 0.97352064 2.3740642 8.2972662e-39
0.1957839 0.97904676 2.3875403 7.0979901e-39
0.20560347 0.97966468 2.3890471 7.0979817e-39
0.21604942 0.98307705 2.3973689 7.7422763e-39
0.2263526 0.98557377 2.4034574 6.6370078e-39
0.23580766 0.9843238 2.4004092 7.4671398e-39
0.24547195 0.98401183 2.3996484 7.4678432e-39
0.25537288 0.98463601 2.4011705 6.8228353e-39
0.26469833 0.98307705 2.3973689 7.189827e-39
0.27425441 0.98245484 2.3958516 6.8217535e-39
0.28379843 0.98183346 2.3943362 6.1767471e-39
0.29416713 0.98401183 2.3996484 6.5462555e-39
0.30332932 0.98214406 2.3950937 6.2700329e-39
0.31324807 0.98276585 2.39661 6.6398902e-39
0.32256633 0.98152304 2.3935792 7.1001369e-39
0.33102486 0.97781336 2.3845325 6.5458925e-39
0.34177902 0.98090279 2.3920665 6.1778261e-39
0.35349768 0.98651332 2.4057486 6.8228381e-39
0.36418727 0.9890275 2.4118798 6.5448079e-39
0.37421438 0.98965806 2.4134176 7.1894669e-39
0.38339821 0.98808318 2.4095769 6.8221137e-39
0.39193016 0.9849484 2.4019322 6.0838312e-39
0.39789143 0.97566229 2.3792868 5.8997972e-39
0.40601665 0.97199667 2.3703477 6.2693014e-39
0.41459832 0.96956819 2.3644257 5.5320965e-39
0.4239296 0.96896297 2.3629496 5.7172081e-39
0.4327094 0.96715182 2.3585329 4.4261007e-39
0.44131917 0.96504736 2.3534009 4.2395514e-39
0.44739372 0.9576056 2.3352532 4.055163e-39
0.45337531 0.95027775 2.3173831 4.2388354e-39
0.45926604 0.94306117 2.2997847 4.4228693e-39
0.46422824 0.93426341 2.2783301 4.2391997e-39
0.46617988 0.91986883 2.243227 4.2399186e-39
0.48476389 0.93821621 2.2879694 4.0558917e-39
0.48814881 0.92701024 2.2606423 4.0562532e-39
0.52129483 0.97169244 2.3696058 3.9640562e-39
0.52321517 0.9576056 2.3352532 3.7796635e-39
0.53833866 0.96775478 2.3600035 3.5041542e-39
0.55170023 0.97443736 2.3762996 3.5041514e-39
0.57248515 0.99377638 2.4234605 3.6878238e-39
0.5875873 1.002764 2.4453781 3.7796579e-39
0.59291571 0.99505043 2.4265676 4.1477215e-39
0.59816271 0.98745465 2.4080441 4.3321142e-39
0.60466635 0.98214406 2.3950937 4.4246686e-39
0.61033219 0.97566229 2.3792868 4.5165069e-39
0.61843371 0.97321546 2.3733201 4.3324785e-39
0.62727934 0.97199667 2.3703477 4.610143e-39
0.63829839 0.97413158 2.3755541 5.0714799e-39
0.64692467 0.97260571 2.3718328 4.0569678e-39
0.65531904 0.97078091 2.367383 4.2402787e-39
0.65936029 0.96265346 2.347563 4.4239483e-39
0.66292673 0.95407414 2.3266413 4.5157824e-39
0.66785413 0.94766706 2.3110168 4.5154265e-39
0.67373729 0.94277477 2.2990861 4.6079836e-39
0.68141276 0.94048995 2.2935143 4.4239525e-39
0.69556749 0.9470889 2.3096068 4.3324743e-39
0.71035868 0.95436746 2.3273566 4.2399186e-39
0.72135657 0.95642555 2.3323755 4.1477229e-39
0.7387886 0.96685064 2.3577983 4.2399172e-39
0.75589079 0.976583 2.3815322 4.3313925e-39
0.77235907 0.98526096 2.4026947 4.4235882e-39
0.78136653 0.9843238 2.4004092 4.4235882e-39
0.78860831 0.98121279 2.3928225 4.3313939e-39
0.7995832 0.98276585 2.39661 4.423591e-39
0.8087979 0.98214406 2.3950937 4.4243112e-39
0.8205952 0.98463601 2.4011705 4.1480831e-39
0.83324742 0.98808318 2.4095769 4.1477229e-39
0.84115273 0.98588675 2.4042206 4.4239511e-39
0.85172176 0.9868269 2.4065132 5.0693219e-39
0.8598488 0.9849484 2.4019322 4.7930952e-39
0.86739558 0.98245484 2.3958516 4.7019785e-39
0.87462819 0.97966468 2.3890471 5.0700436e-39
0.88348782 0.97873813 2.3867877 5.0696834e-39
0.89261186 0.9781214 2.3852837 4.4261077e-39
0.90059012 0.97627592 2.3807833 4.610499e-39
0.90825331 0.97413158 2.3755541 4.6094214e-39
0.91962588 0.97596902 2.3800349 4.60942e-39
0.92782694 0.97443736 2.3762996 4.9785626e-39
0.9365893 0.97352064 2.3740642 5.4391862e-39
0.94474322 0.97199667 2.3703477 5.6235733e-39
0.95287168 0.97047746 2.366643 5.2547894e-39
0.95858133 0.96654963 2.3570645 5.3466263e-39
0.9642449 0.96265346 2.347563 5.6250138e-39
0.97016263 0.95908475 2.3388603 5.2555124e-39
0.97393835 0.95348811 2.3252122 5.4391834e-39
0.98307335 0.95319539 2.3244982 5.4395422e-39
0.99007547 0.95085984 2.3188026 5.4395422e-39
0.99918038 0.95056868 2.3180928 5.5320965e-39
1.0067389 0.9488256 2.3138418 5.7168437e-39
1.0151989 0.94795644 2.3117223 5.7175654e-39
1.0255206 0.9488256 2.3138418 6.0852675e-39
1.0339633 0.94795644 2.3117223 5.9001588e-39
1.0427088 0.94737792 2.3103116 5.6232146e-39
1.0514435 0.94680005 2.3089023 5.1633168e-39
1.0591991 0.94535851 2.305387 5.3484255e-39
1.0728023 0.94911569 2.3145492 5.7164892e-39
1.0812043 0.948246 2.3124285 5.7164892e-39
1.0922575 0.94969636 2.3159654 5.8079659e-39
1.1023313 0.95027775 2.3173831 5.8076058e-39
1.1107165 0.94940591 2.3152571 5.5310189e-39
1.1228601 0.9517343 2.3209352 5.3469864e-39
1.1284742 0.94853568 2.3131349 5.3477067e-39
1.140301 0.95056868 2.3180928 5.4409785e-39
1.1518251 0.95231819 2.3223591 5.8097624e-39
1.1633916 0.95407414 2.3266413 6.2689427e-39
1.1735556 0.95466095 2.3280723 5.7157675e-39
1.1862873 0.95731032 2.334533 5.7157703e-39
1.1990898 0.95997447 2.3410299 5.6232174e-39
1.2089647 0.96027136 2.341754 5.6235761e-39
1.2230083 0.96384889 2.3504784 5.7164892e-39
1.2340803 0.96504736 2.3534009 5.8090449e-39
1.2455676 0.96654963 2.3570645 5.9005217e-39
1.2598405 0.97017419 2.3659034 5.8090464e-39
1.2682536 0.96926546 2.3636875 6.1778289e-39
1.2762529 0.96805656 2.3607392 6.3618586e-39
1.2878418 0.96956819 2.3644257 6.0849116e-39
1.2994671 0.97108454 2.3681235 6.0859906e-39
-1.4947089 0.99818021 2.4103441 7.7444315e-39
-1.4839816 0.997545 2.4088104 7.7440714e-39
-1.4709294 0.99532825 2.4034574 8.1132154e-39
-1.4644291 0.997545 2.4088104 8.0217387e-39
-1.4523425 0.99596059 2.4049845 7.560399e-39
-1.4434988 0.99659377 2.4065132 7.6515142e-39
-1.4360143 0.99818021 2.4103441 7.4671244e-39
-1.426686 0.99849808 2.4111116 7.3745714e-39
-1.4083785 0.99249256 2.39661 7.7422721e-39
-1.3990946 0.99280685 2.3973689 7.9270249e-39
-1.3841054 0.9890486 2.3882935 7.7437098e-39
-1.3748462 0.98936069 2.3890471 7.0986978e-39
-1.3625704 0.98749101 2.3845325 7.5596759e-39
-1.3516155 0.98655885 2.3822815 8.2976025e-39
-1.3415248 0.98624849 2.3815322 7.7458692e-39
-1.331022 0.98562843 2.3800349 7.6525974e-39
-1.3201176 0.98469973 2.3777924 7.9288228e-39
-1.3117031 0.98562843 2.3800349 8.5734733e-39
-1.3024532 0.98593837 2.3807833 8.574195e-39
-1.2989177 0.99061108 2.3920665 8.1135742e-39
-1.2900245 0.99123746 2.3935792 7.4674873e-39
-1.2835566 0.99375087 2.3996484 8.8507833e-39
-1.2758394 0.99532825 2.4034574 8.9444194e-39
-1.2680979 0.99691063 2.4072785 7.7451546e-39
-1.2551351 0.99438125 2.4011705 7.1912563e-39
-1.2418451 0.99155092 2.3943362 8.1121322e-39
-1.2247682 0.98562843 2.3800349 8.3883618e-39
-1.2151088 0.98562843 2.3800349 7.9266606e-39
-1.2039354 0.98439056 2.3770459 7.6518715e-39
-1.1927902 0.98315585 2.3740642 7.7440714e-39
-1.1794565 0.98008251 2.366643 7.5596787e-39
-1.1651165 0.97611582 2.3570645 9.1262842e-39
-1.1541131 0.97490174 2.3541327 8.4819951e-39
-1.1417187 0.97248262 2.3482912 7.8362614e-39
-1.1311356 0.97157854 2.3461082 8.2054027e-39
-1.1209191 0.97097677 2.344655 7.928464e-39
-1.1134722 0.97278434 2.3490198 7.743714e-39
-1.1094464 0.97763765 2.3607392 9.2174092e-39
-1.1002083 0.97794259 2.3614757 8.6649585e-39
-1.088926 0.97641981 2.3577983 7.7433525e-39
-1.0780139 0.975205 2.3548648 7.835188e-39
-1.0648134 0.97187972 2.3468354 8.2976095e-39
-1.0559433 0.97248262 2.3482912 8.1143014e-39
-1.0470623 0.9730863 2.3497488 8.8493399e-39
-1.040432 0.97581202 2.3563309 9.6794523e-39
-1.030548 0.97550839 2.3555977 8.6653088e-39
-1.0241743 0.97855306 2.3629496 7.927385e-39
-1.0107985 0.97490174 2.3541327 7.9277424e-39
-1.005936 0.97947019 2.3651643 8.7578618e-39
-0.99633694 0.97947019 2.3651643 8.0206541e-39
-0.99138355 0.98408163 2.3762996 8.5738264e-39
-0.98173928 0.98408163 2.3762996 9.1262814e-39
-0.97546285 0.98749101 2.3845325 8.5723859e-39
-0.96517718 0.98686939 2.3830314 8.0202911e-39
-0.95580643 0.98718011 2.3837817 8.6656661e-39
-0.94732493 0.98842496 2.3867877 8.9426174e-39
-0.93675214 0.98749101 2.3845325 8.4809119e-39
-0.92970985 0.99029815 2.3913109 9.4929045e-39
-0.92000467 0.99029815 2.3913109 9.5861833e-39
-0.9068622 0.98655885 2.3822815 9.0326536e-39
-0.89889073 0.98842496 2.3867877 8.5727516e-39
-0.88418645 0.98284763 2.3733201 8.3901568e-39
-0.87620229 0.98469973 2.3777924 8.8511406e-39
-0.86682421 0.98500913 2.3785393 8.8500658e-39
-0.85395139 0.98130953 2.3696058 9.4021606e-39
-0.84459865 0.9816168 2.3703477 9.0348102e-39
-0.83419502 0.98069566 2.3681235 8.6671011e-39
-0.82665247 0.98315585 2.3740642 8.7603687e-39
-0.81522781 0.98100251 2.3688645 8.6678143e-39
-0.80788875 0.98377281 2.3755541 8.2061229e-39
-0.79874879 0.98439056 2.3770459 8.4809133e-39
-0.78885376 0.98408163 2.3762996 8.296885e-39
-0.78043431 0.98562843 2.3800349 8.4812791e-39
-0.76787812 0.98192424 2.3710902 8.9429719e-39
-0.758255 0.98192424 2.3710902 8.2054097e-39
-0.75311327 0.98780215 2.3852837 9.2188497e-39
-0.74437064 0.9890486 2.3882935 8.9411824e-39
-0.73514152 0.98967296 2.3898013 9.1259226e-39
-0.72498471 0.9890486 2.3882935 1.0232639e-38
-0.71642178 0.99061108 2.3920665 1.060214e-38
-0.70470959 0.98780215 2.3852837 9.8645611e-39
-0.69328147 0.98531866 2.3792868 9.4039444e-39
-0.68298113 0.98439056 2.3770459 9.863852e-39
-0.67312253 0.98408163 2.3762996 8.2046894e-39
-0.66368657 0.98439056 2.3770459 8.4812777e-39
-0.65403926 0.98439056 2.3770459 9.4979435e-39
-0.64177245 0.980389 2.367383 8.852214e-39
-0.63374972 0.98284763 2.3733201 8.8504147e-39
-0.62470508 0.98377281 2.3755541 8.7585848e-39
-0.61506379 0.98377281 2.3755541 7.8366355e-39
-0.60352886 0.98069566 2.3681235 9.0344473e-39
-0.59671748 0.98531866 2.3792868 9.6805313e-39
-0.58669233 0.98469973 2.3777924 9.1284408e-39
-0.57577616 0.98253965 2.3725762 9.0348088e-39
-0.56473118 0.98008251 2.366643 8.6671011e-39
-0.55616927 0.98192424 2.3710902 8.7589464e-39
-0.54586232 0.98069566 2.3681235 8.6671179e-39
-0.53608352 0.980389 2.367383 1.0419178e-38
-0.5256536 0.97885859 2.3636875 9.402864e-39
-0.51397443 0.97490174 2.3541327 8.8522168e-39
-0.50442016 0.97490174 2.3541327 8.6671081e-39
-0.49379104 0.97278434 2.3490198 9.956049e-39
-0.48350739 0.97127759 2.3453813 1.0509576e-38
-0.47457668 0.97248262 2.3482912 1.060428e-38
-0.46562377 0.97369069 2.3512082 8.3901596e-39
-0.45636478 0.97429585 2.3526697 8.3894422e-39
-0.44779047 0.97641981 2.3577983 1.0230474e-38
-0.43822128 0.97641981 2.3577983 9.5869022e-39
-0.42945457 0.97824776 2.3622124 8.3901554e-39
-0.41895244 0.97611582 2.3570645 9.2181211e-39
-0.41015241 0.97794259 2.3614757 9.8649226e-39
-0.40056828 0.97794259 2.3614757 9.0344417e-39
-0.39257604 0.98192424 2.3710902 7.7429784e-39
-0.3827132 0.98130953 2.3696058 8.5709426e-39
-0.3732129 0.9816168 2.3703477 8.9418887e-39
-0.36439139 0.98377281 2.3755541 9.7741661e-39
-0.35486147 0.98408163 2.3762996 9.0362451e-39
-0.34252942 0.97641981 2.3577983 8.9436838e-39
-0.33306396 0.97672397 2.3585329 1.004752e-38
-0.32318977 0.97581202 2.3563309 1.0326629e-38
-0.31382188 0.97641981 2.3577983 1.1156057e-38
-0.30415797 0.97611582 2.3570645 9.6798195e-39
-0.29459175 0.97611582 2.3570645 9.1266471e-39
-0.28582644 0.97885859 2.3636875 8.2990444e-39
-0.27675176 0.98069566 2.3681235 8.7589324e-39
-0.26789483 0.98346424 2.3748088 9.4957799e-39
-0.25777146 0.9816168 2.3703477 9.3113985e-39
-0.24784097 0.980389 2.367383 9.0344543e-39
-0.23995867 0.98749101 2.3845325 9.0366067e-39
-0.2309356 0.99029815 2.3913109 8.6670983e-39
-0.22207212 0.99406594 2.4004092 9.4968589e-39
-0.21192685 0.9921785 2.3958516 8.852235e-39
-0.20188378 0.99061108 2.3920665 8.4837958e-39
-0.19205415 0.98998547 2.3905559 8.9418971e-39
-0.18081054 0.9816168 2.3703477 1.1153502e-38
-0.17081605 0.97947019 2.3651643 1.4194886e-38
-0.16066486 0.97611582 2.3570645 9.0344543e-39
-0.15095766 0.975205 2.3548648 8.9426244e-39
-0.14157653 0.97641981 2.3577983 8.6656731e-39
-0.13147505 0.97248262 2.3482912 7.3749343e-39
-0.12194445 0.97248262 2.3482912 8.1128595e-39
-0.11175524 0.96678507 2.334533 8.4812791e-39
-0.1023436 0.96738166 2.3359737 8.1153748e-39
-0.092834346 0.96708328 2.3352532 9.0333725e-39
-0.083562858 0.96947557 2.3410299 9.678016e-39
-0.074476257 0.97490174 2.3541327 8.1128609e-39
-0.065083846 0.97733289 2.3600035 7.7447958e-39
-0.055783935 0.98223186 2.3718328 8.0213743e-39
-0.046157788 0.98223186 2.3718328 7.5593242e-39
-0.036451709 0.98008251 2.366643 7.2834421e-39
-0.026956169 0.98408163 2.3762996 6.9143093e-39
-0.017246936 0.980389 2.367383 7.3760133e-39
-0.0076460224 0.98130953 2.3696058 7.4674845e-39
0.0019835006 0.98749101 2.3845325 7.8359013e-39
0.011672216 0.98842496 2.3867877 8.8504133e-39
0.021312024 0.98624849 2.3815322 8.1124966e-39
0.030938605 0.98500913 2.3785393 7.0987006e-39
0.040490203 0.98253965 2.3725762 7.7437098e-39
0.049822707 0.97672397 2.3585329 7.3731323e-39
0.059487537 0.97824776 2.3622124 7.4656866e-39
0.06926915 0.98100251 2.3688645 7.2820198e-39
0.078858577 0.98069566 2.3681235 7.4671314e-39
0.088525042 0.98130953 2.3696058 7.7440784e-39
0.098203622 0.98192424 2.3710902 6.8231997e-39
0.10718893 0.97611582 2.3570645 7.1927039e-39
0.11664619 0.975205 2.3548648 8.1135826e-39
0.12624273 0.97550839 2.3555977 7.2841778e-39
0.13592987 0.97641981 2.3577983 7.1919794e-39
0.14531803 0.975205 2.3548648 6.3622145e-39
0.15535854 0.97824776 2.3622124 7.1916165e-39
0.16504863 0.97885859 2.3636875 6.8221137e-39
0.17464171 0.97885859 2.3636875 6.7295593e-39
0.18360426 0.97550839 2.3555977 8.5731272e-39
0.19370693 0.97824776 2.3622124 7.3749343e-39
0.20348451 0.9791643 2.3644257 6.8217535e-39
0.21354744 0.98130953 2.3696058 6.6362903e-39
0.22386521 0.98439056 2.3770459 7.6504422e-39
0.23300043 0.98223186 2.3718328 8.2018237e-39
0.24255058 0.98192424 2.3710902 6.6377308e-39
0.25249001 0.98315585 2.3740642 9.0344529e-39
0.26187885 0.98223186 2.3718328 7.7429952e-39
0.27125007 0.98130953 2.3696058 6.7288362e-39
0.280516 0.98008251 2.366643 5.9916411e-39
0.29121345 0.98377281 2.3755541 6.8224766e-39
0.30113816 0.98469973 2.3777924 6.6377266e-39
0.31039855 0.98346424 2.3748088 6.54661e-39
0.31933561 0.98130953 2.3696058 7.6525918e-39
0.32751757 0.97702837 2.359268 7.190899e-39
0.33730295 0.97763765 2.3607392 6.6380854e-39
0.34807798 0.98100251 2.3688645 7.0979887e-39
0.35825256 0.98253965 2.3725762 6.3600635e-39
0.36845905 0.98408163 2.3762996 6.5437345e-39
0.37715629 0.9816168 2.3703477 7.3738497e-39
0.38508847 0.97733289 2.3600035 6.1771044e-39
0.39185718 0.97037572 2.3432035 6.0849074e-39
0.40000528 0.96708328 2.3352532 6.268221e-39
0.4079729 0.96351689 2.3266413 5.899084e-39
0.41805801 0.96499968 2.3302219 6.1767471e-39
0.42620349 0.96203864 2.3230717 6.1771016e-39
0.43589923 0.96262944 2.3244982 4.7934497e-39
0.44288564 0.95733863 2.3117223 4.5172257e-39
0.45034268 0.95326358 2.3018823 4.6083396e-39
0.45635489 0.94635797 2.285207 4.6079808e-39
0.46089944 0.93674457 2.2619932 4.6083424e-39
0.46631804 0.92924839 2.2438917 4.5165069e-39
0.47598922 0.93035132 2.2465551 4.3321156e-39
0.47857445 0.9178232 2.2163029 4.4243112e-39
0.51184297 0.96351689 2.3266413 4.4243126e-39
0.50969464 0.94209254 2.2749071 4.4243126e-39
0.52096242 0.94578701 2.2838283 4.2402801e-39
0.54183632 0.96648705 2.3338134 4.1484432e-39
0.56382209 0.98842496 2.3867877 4.1484432e-39
0.58325434 1.0052209 2.4273455 4.1484432e-39
0.58745539 0.99564433 2.4042206 4.0558874e-39
0.59325665 0.9890486 2.3882935 4.0555287e-39
0.59954524 0.98346424 2.3748088 4.2402773e-39
0.60557437 0.97763765 2.3607392 4.3321128e-39
0.61458057 0.97672397 2.3585329 4.1480831e-39
0.62221438 0.97369069 2.3512082 4.2406416e-39
0.63254255 0.97490174 2.3541327 5.1625979e-39
0.64209688 0.97490174 2.3541327 4.7019771e-39
0.65084165 0.97369069 2.3512082 4.0566077e-39
0.65732205 0.96917588 2.3403063 4.2402787e-39
0.66049099 0.95997673 2.3180928 4.3321142e-39
0.66460818 0.9523949 2.2997847 4.3317555e-39
0.66967005 0.94635797 2.285207 4.3321128e-39
0.67792147 0.94493186 2.2817633 4.3317527e-39
0.68842697 0.94664371 2.285897 4.4243084e-39
0.70066613 0.9506622 2.2956007 4.2395584e-39
0.71584332 0.95850933 2.3145492 4.2395612e-39
0.73855859 0.97611582 2.3570645 4.2399186e-39
0.75517809 0.98531866 2.3792868 4.2392025e-39
0.77211404 0.99469668 2.4019322 4.3313953e-39
0.77815914 0.98998547 2.3905559 4.607978e-39
0.78513426 0.98655885 2.3822815 4.6994562e-39
0.79781532 0.99029815 2.3913109 4.5154279e-39
0.80675608 0.98936069 2.3890471 4.4239511e-39
0.81774235 0.99092412 2.3928225 4.4239483e-39
0.83007717 0.99406594 2.4004092 4.3317541e-39
0.83637196 0.98998547 2.3905559 4.5157894e-39
0.84500682 0.98873669 2.3875403 4.7930938e-39
0.85200983 0.98562843 2.3800349 4.7023359e-39
0.85977727 0.98346424 2.3748088 5.1625937e-39
0.86751068 0.98130953 2.3696058 5.5306602e-39
0.87822729 0.98253965 2.3725762 4.9778465e-39
0.88674492 0.98130953 2.3696058 4.6097801e-39
0.8952412 0.98008251 2.366643 4.7019757e-39
0.90230775 0.97733289 2.3600035 4.7019771e-39
0.91302431 0.97855306 2.3629496 4.701617e-39
0.92031652 0.97611582 2.3570645 4.7016156e-39
0.92786062 0.97399318 2.3519387 5.1629539e-39
0.93653315 0.9730863 2.3497488 5.7164864e-39
0.94724566 0.97429585 2.3526697 5.5310189e-39
0.95294434 0.97037572 2.3432035 5.4384632e-39
0.95918876 0.96708328 2.3352532 5.7157759e-39
0.96568775 0.96410948 2.3280723 5.9920013e-39
0.97095627 0.95997673 2.3180928 5.2551509e-39
0.97916508 0.95880246 2.3152571 5.3473479e-39
0.98735386 0.95763105 2.3124285 5.3477081e-39
0.99643457 0.95733863 2.3117223 5.8094023e-39
1.0036715 0.95529675 2.3067918 6.3629348e-39
1.0121086 0.95442438 2.3046851 5.6242908e-39
1.0227075 0.95558792 2.3074949 5.3466249e-39
1.0311296 0.95471495 2.305387 5.070038e-39
1.0401694 0.95442438 2.3046851 5.0703995e-39
1.0488844 0.95384365 2.303283 5.4391834e-39
1.0550227 0.95095056 2.2962968 5.440261e-39
1.0675803 0.95384365 2.303283 5.7164878e-39
1.0759462 0.95297384 2.3011825 6.1771072e-39
1.0866067 0.95413393 2.3039837 5.9930747e-39
1.0959575 0.95413393 2.3039837 5.6239348e-39
1.1066554 0.95529675 2.3067918 5.7161319e-39
1.1190864 0.95792359 2.3131349 5.3477081e-39
1.1236678 0.95384365 2.303283 5.4402652e-39
1.1350877 0.95558792 2.3074949 5.2562299e-39
1.1451509 0.9561708 2.3089023 5.6246523e-39
1.1559317 0.95733863 2.3117223 5.9008804e-39
1.1670957 0.95880246 2.3152571 5.9008776e-39
1.1793776 0.96115386 2.3209352 5.5317392e-39
1.1931865 0.96470279 2.329505 5.5313805e-39
1.202271 0.96440601 2.3287883 5.8094051e-39
1.2165873 0.96827793 2.3381379 5.8094051e-39
1.2249417 0.96738166 2.3359737 5.2555166e-39
1.235566 0.96827793 2.3381379 5.1629581e-39
1.2500743 0.97218108 2.347563 5.2562313e-39
1.2564851 0.96977544 2.341754 5.9930775e-39
1.2644247 0.96857709 2.3388603 5.9930747e-39
1.2735237 0.96827793 2.3381379 5.8083247e-39
1.2853949 0.97007549 2.3424785 5.901242e-39
-1.4885482 1.003808 2.4004092 7.5596801e-39
-1.4769329 1.0025367 2.3973689 7.743714e-39
-1.4630336 0.99968761 2.3905559 7.8366285e-39
-1.4556296 1.0012684 2.3943362 7.4682034e-39
-1.4418083 0.99842656 2.3875403 7.1908934e-39
-1.4348333 1.0003194 2.3920665 7.0061434e-39
-1.4255755 1.0006355 2.3928225 7.2830946e-39
-1.4163117 1.0009519 2.3935792 7.0983446e-39
-1.3995179 0.99591404 2.3815322 7.1898242e-39
-1.3867987 0.9937259 2.3762996 7.2830974e-39
-1.371987 0.98999709 2.367383 7.191978e-39
-1.3632314 0.99061662 2.3688645 7.1916193e-39
-1.3515029 0.98906922 2.3651643 7.8369859e-39
-1.3406473 0.98814315 2.3629496 8.1142888e-39
-1.330642 0.98783481 2.3622124 7.7455049e-39
-1.3210549 0.98783481 2.3622124 7.3760077e-39
-1.3082024 0.98537523 2.3563309 8.0199366e-39
-1.3006632 0.98691106 2.3600035 8.3887219e-39
-1.288274 0.98476225 2.3548648 8.3898051e-39
-1.2851123 0.98968762 2.366643 8.2054139e-39
-1.2771041 0.99092668 2.3696058 8.2050509e-39
-1.2718658 0.99435008 2.3777924 8.2039761e-39
-1.263009 0.99497509 2.3792868 8.1135784e-39
-1.25493 0.99622738 2.3822815 7.2852554e-39
-1.2413554 0.99310249 2.3748088 7.3760119e-39
-1.228634 0.99061662 2.3688645 7.9281053e-39
-1.2129476 0.98568201 2.3570645 7.6515156e-39
-1.2033814 0.98568201 2.3570645 7.7440686e-39
-1.1927012 0.98476225 2.3548648 7.7437098e-39
-1.1846178 0.98598897 2.3577983 7.6515156e-39
-1.172857 0.98415005 2.3534009 8.4809105e-39
-1.1600603 0.98140442 2.3468354 9.6805369e-39
-1.1491108 0.98018909 2.3439291 8.3905184e-39
-1.13573 0.97686231 2.3359737 8.1132126e-39
-1.1255549 0.97625983 2.334533 8.2972466e-39
-1.1150486 0.97535759 2.3323755 7.7451532e-39
-1.1072882 0.97686231 2.3359737 8.9408125e-39
-1.1022288 0.98079634 2.3453813 1.188784e-38
-1.0944052 0.98231792 2.3490198 9.5861875e-39
-1.0835268 0.98110032 2.3461082 8.2032517e-39
-1.0736724 0.98079634 2.3453813 8.8504175e-39
-1.0605396 0.97746545 2.3374162 8.8511434e-39
-1.0526782 0.97897673 2.3410299 8.1125008e-39
-1.043177 0.97897673 2.3410299 8.6645815e-39
-1.0365605 0.98170871 2.347563 9.3099523e-39
-1.0263964 0.98110032 2.3461082 8.4802015e-39
-1.0200356 0.98415005 2.3534009 7.0987048e-39
-1.006729 0.98049259 2.344655 7.3749357e-39
-0.99906957 0.98231792 2.3490198 7.6508009e-39
-0.98984313 0.9826228 2.3497488 7.9273822e-39
-0.98274672 0.98506868 2.3555977 8.3890792e-39
-0.97288376 0.98476225 2.3548648 8.0206555e-39
-0.96603078 0.98752671 2.3614757 8.2972424e-39
-0.95495731 0.98598897 2.3577983 8.574188e-39
-0.94509381 0.98568201 2.3570645 8.2050481e-39
-0.93757087 0.98783481 2.3622124 8.4819979e-39
-0.92624974 0.98598897 2.3577983 8.7582191e-39
-0.91897017 0.98845166 2.3636875 9.0344417e-39
-0.90966105 0.98876035 2.3644257 9.0333711e-39
-0.89838153 0.98691106 2.3600035 8.2036146e-39
-0.88797301 0.98598897 2.3577983 7.9299004e-39
-0.87540495 0.9826228 2.3497488 8.577069e-39
-0.86559975 0.98231792 2.3490198 9.2210063e-39
-0.85500509 0.98110032 2.3461082 8.8504203e-39
-0.84548336 0.98110032 2.3461082 9.2177595e-39
-0.83622074 0.98140442 2.3468354 8.9422516e-39
-0.82618386 0.98079634 2.3453813 8.4827084e-39
-0.81894839 0.98353857 2.3519387 9.4035773e-39
-0.80764669 0.98140442 2.3468354 9.2191874e-39
-0.80060369 0.98445606 2.3541327 7.7440644e-39
-0.79104936 0.98445606 2.3541327 7.6507939e-39
-0.78319979 0.9866035 2.359268 8.2979598e-39
-0.77434856 0.98752671 2.3614757 8.3897995e-39
-0.76333588 0.98568201 2.3570645 8.6663878e-39
-0.75518036 0.98752671 2.3614757 9.0355361e-39
-0.74957091 0.99279106 2.3740642 8.758952e-39
-0.74040002 0.9934141 2.3755541 7.7444301e-39
-0.73075879 0.9934141 2.3755541 8.9411684e-39
-0.71796364 0.98906922 2.3651643 9.6808957e-39
-0.70770127 0.98814315 2.3629496 9.1280792e-39
-0.69658929 0.98598897 2.3577983 8.5745411e-39
-0.68446219 0.98231792 2.3490198 8.2975927e-39
-0.67284101 0.97927952 2.341754 8.1110462e-39
-0.66313183 0.97897673 2.3410299 8.0213771e-39
-0.65444016 0.98018909 2.3439291 8.8525783e-39
-0.64373147 0.97837168 2.3395832 9.868161e-39
-0.63150412 0.97415715 2.329505 9.4061052e-39
-0.6232003 0.97595888 2.3338134 9.2209951e-39
-0.61353928 0.97565812 2.3330941 8.8518595e-39
-0.60518938 0.97746545 2.3374162 7.8366327e-39
-0.59515166 0.97656095 2.3352532 8.942609e-39
-0.58784986 0.98018909 2.3439291 1.0051475e-38
-0.57905406 0.98140442 2.3468354 1.0234801e-38
-0.56882405 0.98018909 2.3439291 1.0328069e-38
-0.55861938 0.97897673 2.3410299 8.2064901e-39
-0.54945803 0.97958249 2.3424785 9.4032382e-39
-0.54062015 0.98079634 2.3453813 8.1125008e-39
-0.52995211 0.97867405 2.3403063 7.7437098e-39
-0.52174419 0.98110032 2.3461082 8.2965165e-39
-0.50985253 0.97656095 2.3352532 8.7574932e-39
-0.50114769 0.97806942 2.3388603 9.0344431e-39
-0.49029219 0.97535759 2.3323755 9.0340871e-39
-0.48053011 0.97475696 2.3309393 8.4823497e-39
