# .PCD v0.7 - Point Cloud Data file format
VERSION 0.7
FIELDS x y z normal_x normal_y normal_z curvature
SIZE 4 4 4 4 4 4 4
TYPE F F F F F F F
COUNT 1 1 1 1 1 1 1
WIDTH 612
HEIGHT 1
VIEWPOINT 0 0 0 1 0 0 0
POINTS 612
DATA ascii
-0.12889548 0.28662801 0.73072582 -0.1446456 -0.65634263 -0.749093 0.078957528
-0.12600791 0.28632441 0.73071766 -0.14313714 -0.69457525 -0.70556718 0.080420651
-0.12312851 0.28615832 0.73075092 -0.15008022 -0.71974099 -0.67802227 0.082142234
-0.12014718 0.2860423 0.73054349 0.1444024 0.74210882 0.65857393 0.089701764
-0.11756058 0.28557292 0.73078674 0.15033819 0.78810656 0.61339712 0.094666742
-0.11431515 0.28557038 0.73024207 0.17978938 0.80841511 0.60009861 0.098008484
-0.11168776 0.28509393 0.73028916 0.20784402 0.85061389 0.55662054 0.10392043
-0.10901792 0.28459027 0.73010653 0.2463481 0.8928746 0.51351386 0.10995455
-0.10628623 0.2840434 0.72958505 0.29269421 0.92489594 0.47219962 0.11450145
-0.10309191 0.28370491 0.72845703 0.36879444 0.95495152 0.45081285 0.11696997
-0.10071195 0.28283292 0.72735792 0.55787438 0.95810091 0.36906579 0.1349823
-0.098832034 0.28201783 0.72799933 0.46569028 1.0536358 0.30966777 0.12744521
-0.099677265 0.28091657 0.7324754 -0.32610467 -1.1733612 -0.093955159 0.13741246
-0.085923262 0.27171189 0.69573575 0.72514552 0.27739188 0.74155778 0.084045254
-0.081754856 0.27226689 0.69304371 -0.53226638 -0.38194272 -0.86199951 0.079241224
-0.078409709 0.27252302 0.69139886 -0.40204856 -0.45922479 -0.87004375 0.07181564
-0.076076783 0.2719599 0.69107777 -0.32730842 -0.46891284 -0.89374942 0.065406524
-0.074370377 0.27061525 0.69127798 -0.27457291 -0.44325683 -0.93185312 0.061970297
-0.072246142 0.26965946 0.6913386 -0.21466403 -0.42871466 -0.95664054 0.057344258
-0.069376133 0.26960135 0.69101048 -0.1582429 -0.45452625 -0.94617826 0.05041052
-0.066982642 0.26895824 0.69114238 0.1146078 0.45217165 0.95441347 0.047631066
-0.064134516 0.26894692 0.69112355 -0.075948387 -0.47470519 -0.94942331 0.044856884
-0.061233539 0.26918545 0.6912626 -0.018121462 -0.46731099 -0.95568651 0.041131146
-0.05835164 0.26940393 0.69128489 0.017000005 -0.49733418 -0.94015807 0.042766619
-0.055500403 0.26966673 0.69126165 0.046471048 -0.53765887 -0.91172945 0.044772029
-0.052739788 0.26958233 0.69148135 0.073595271 -0.55659348 -0.89802849 0.046659339
-0.049948093 0.26955238 0.69158489 0.098618731 -0.5834918 -0.87028229 0.049789712
-0.047305916 0.2686522 0.69243592 0.14681527 -0.55958843 -0.89392459 0.053395644
-0.044486493 0.26885092 0.69263828 0.19402499 -0.58917505 -0.87387365 0.059441142
-0.041536525 0.27027923 0.691971 0.2403188 -0.68643051 -0.76881945 0.063649364
-0.03878472 0.27066267 0.69247478 0.31996077 -0.70729923 -0.73068541 0.068610497
-0.036092933 0.27152294 0.69301611 0.39231387 -0.71409678 -0.70034683 0.074728236
-0.033392623 0.2716502 0.69458485 0.4835133 -0.66066504 -0.7423017 0.077215731
-0.030322498 0.2708492 0.69728404 0.59845513 -0.53825474 -0.84069788 0.076722443
-0.017503999 0.2904042 0.74561167 -0.0062799864 0.079675354 1.0019495 0.025646212
-0.014509829 0.29055154 0.74577814 0.08473479 0.1432883 0.99696988 0.037023481
-0.011494294 0.29052293 0.74541169 0.14142579 0.18731354 1.0020026 0.040537383
-0.0083831996 0.29036167 0.74492675 0.12387615 0.23878354 0.99427295 0.044940323
-0.0052874573 0.29015094 0.74452966 0.084807031 0.2734659 0.9888677 0.048004556
-0.0023121696 0.29008329 0.74444586 0.034094099 0.34772152 0.96425688 0.060555376
0.0006181699 0.2901631 0.74443966 -0.010129916 0.39626825 0.93074465 0.054170817
0.0036442308 0.29011646 0.74433595 -0.052284285 0.44175565 0.9033137 0.0524485
0.0066103325 0.29016572 0.74431568 -0.099948786 0.482196 0.87368631 0.049033552
0.0098215416 0.29004607 0.74452221 -0.15551354 0.52718419 0.83612156 0.052468218
0.012989271 0.29003039 0.7449317 -0.20445697 0.58314472 0.78659034 0.058902733
0.016395284 0.289857 0.74560606 -0.24470939 0.63073748 0.73883361 0.062687419
0.019112984 0.2904985 0.74628705 0.25675261 -0.67913145 -0.69513971 0.056405604
0.021562379 0.2913641 0.74665028 0.25615197 -0.71501535 -0.6585353 0.049355309
0.023887919 0.29240355 0.74687093 0.25152227 -0.73864102 -0.63335782 0.042557832
0.026889069 0.29304534 0.74758339 0.2441268 -0.74737775 -0.62125731 0.038308278
0.029994449 0.29372519 0.74851501 0.23949021 -0.74817163 -0.62071651 0.036956429
0.033877056 0.29356387 0.75103706 0.22845721 -0.74604243 -0.63652956 0.036962025
0.03760824 0.29282668 0.7544902 0.1718132 -0.76299447 -0.64562494 0.038322654
0.040507071 0.29366574 0.75465471 0.13029616 -0.75333834 -0.67052478 0.036640164
0.043599617 0.29387978 0.75522226 0.086223342 -0.73656046 -0.69428396 0.03765944
0.046418954 0.29506594 0.75425881 0.06944444 -0.71215421 -0.71868473 0.037991263
0.049527124 0.29491553 0.75434256 0.027601115 -0.71736789 -0.70120502 0.037953913
0.052613813 0.29466471 0.75417608 -0.0027118325 -0.71102107 -0.70353842 0.034778722
0.055696581 0.29427889 0.75408274 0.01017339 0.71898752 0.69805247 0.027361695
0.058780961 0.29356021 0.75419825 0.042965453 0.67067105 0.74209845 0.020634776
0.061821695 0.29362845 0.75382102 0.050897948 0.63049328 0.77466977 0.016483031
0.064884901 0.29339671 0.75365901 0.063668974 0.59460551 0.80189037 0.014656859
0.067793675 0.29401082 0.75312883 0.042866357 0.59320557 0.80503434 0.014927188
0.070709951 0.29435068 0.75293654 0.024887921 0.60060197 0.80050367 0.015158741
0.073716521 0.2944929 0.75295568 0.011968617 0.60999334 0.7933225 0.015367407
0.076759189 0.29465365 0.75301319 0.0092404308 0.62124348 0.78430218 0.016425591
0.07992059 0.29427293 0.75323075 -0.0046147141 0.63858205 0.77020419 0.017132744
0.082967587 0.2943776 0.75325 -0.0069746431 0.65670323 0.75453436 0.019680385
0.085995167 0.29467013 0.75328779 -0.0070426567 0.67952961 0.73393792 0.025207842
0.089055836 0.29467356 0.7532739 0.011525901 -0.70168537 -0.71244746 0.028706847
0.09206412 0.29497242 0.7531898 0.011347614 -0.72768754 -0.68587631 0.035740215
0.095256776 0.2947979 0.75368571 0.026474454 -0.76187807 -0.64736563 0.043709517
0.098209806 0.29534489 0.75330091 0.014323525 -0.80011171 -0.60007596 0.050438572
0.10126888 0.29531059 0.75348753 0.020694187 -0.83338255 -0.55251575 0.052636016
0.10440613 0.29584309 0.75321341 0.0053914776 -0.87034345 -0.49348158 0.060125761
0.10767385 0.29533371 0.75443578 0.027973142 -0.89312291 -0.45009688 0.055483311
0.11106449 0.29500419 0.75610566 0.052284036 -0.91561693 -0.39900047 0.049331818
0.11375374 0.29648489 0.75388807 0.0079657361 -0.93844551 -0.35069919 0.050855257
0.11737426 0.29582107 0.7572915 0.052831594 -0.94640625 -0.32580915 0.045947704
0.12181286 0.29409486 0.76259309 0.07583566 -0.95976514 -0.27086112 0.030679746
0.12551156 0.29411575 0.76551962 0.083968677 -0.96217471 -0.25927851 0.024661481
0.12693897 0.29613671 0.75910586 0.0032814885 -0.98202193 -0.19275533 0.0304002
0.12994717 0.29604822 0.75865149 -0.025883416 -0.98919994 -0.14653188 0.025543498
0.13188867 0.29517066 0.75148469 -0.082478821 -0.99166095 -0.10033908 0.019798072
0.13521367 0.29460534 0.75318938 -0.098767944 -0.99184132 -0.080771305 0.018737251
0.13856111 0.29443532 0.75520617 -0.091794565 -0.99375802 -0.064377762 0.017237963
0.14079131 0.29264548 0.75078309 -0.13617559 -0.98904383 -0.066999026 0.022654019
0.14393786 0.29220182 0.75182945 -0.14560999 -0.98882842 -0.048674367 0.023810992
0.14833467 0.29410738 0.75877136 -0.016445013 -1.00128 -0.01400544 0.017920351
0.14901425 0.28991669 0.74742657 -0.24758321 -0.96355903 -0.11996396 0.034926672
0.15124255 0.28891933 0.74303037 -0.28017303 -0.94818395 -0.16120525 0.054912232
0.15396053 0.28883117 0.74070621 -0.25447178 -0.97716874 -0.1621628 0.051319648
0.15645467 0.28942508 0.73665124 -0.24810785 -0.96018058 -0.33250993 0.029074974
0.15939379 0.2879428 0.73790187 -0.24380761 -0.99375439 -0.25064102 0.034795724
0.16245519 0.28621948 0.74010515 -0.19865039 -1.0301906 -0.10657647 0.046211679
0.16475174 0.2865673 0.73534232 -0.19486068 -0.92169118 -0.40832144 0.028463142
0.16766424 0.28568077 0.73490423 -0.13493474 -0.8934744 -0.4646619 0.025790937
0.17056823 0.28530061 0.73417395 -0.081181273 -0.87974852 -0.49040124 0.027004892
0.17310764 0.28581896 0.73292661 -0.030924475 -0.85945266 -0.52480704 0.025505034
0.1756521 0.28635758 0.73219573 0.019078972 -0.84107143 -0.54962796 0.022621499
0.17861387 0.28655171 0.73244613 0.075484097 -0.84813446 -0.53427052 0.022643669
0.18182833 0.28668651 0.73327428 0.12847342 -0.86077017 -0.50423002 0.022769015
0.1851258 0.2869249 0.73433548 0.17582235 -0.87303859 -0.46507844 0.026224788
0.18843774 0.28739733 0.73556036 0.20238352 -0.88484311 -0.42643809 0.029574446
0.19164188 0.28816068 0.73677552 0.24438934 -0.88122535 -0.41454661 0.031105882
0.195273 0.28878611 0.73894989 0.28143322 -0.8869068 -0.37918159 0.029705014
0.1996433 0.28934878 0.74277085 0.2881965 -0.90965348 -0.3029975 0.023423297
0.20253703 0.29042861 0.74340069 0.25903141 -0.92343873 -0.28854874 0.023434848
0.2054628 0.29151472 0.74383932 0.22071026 -0.94048899 -0.26451331 0.024465347
0.20969786 0.29200101 0.74722284 0.15599544 -0.95339662 -0.25992557 0.027081309
0.21251911 0.29314497 0.74735689 0.14719246 -0.95104641 -0.27321026 0.027924588
0.21692999 0.29313883 0.75095963 0.079457372 -0.93873215 -0.33556291 0.036834139
0.22038153 0.29327223 0.75210464 0.036582295 -0.92575908 -0.37741023 0.039548386
0.22329462 0.29377958 0.75188416 0.017604947 -0.92328244 -0.38498724 0.040487189
0.22678803 0.29333353 0.75299412 -0.028788462 -0.90440434 -0.42910841 0.039281677
0.22991711 0.29313403 0.75320935 -0.066148169 -0.89380914 -0.45120743 0.036407787
0.23313098 0.29244995 0.75377929 -0.12275361 -0.85675162 -0.50780815 0.029336123
0.23559159 0.29343745 0.75184411 -0.14319062 -0.88317829 -0.45464414 0.036016975
0.23852517 0.29321668 0.75141823 -0.20175482 -0.86809188 -0.45709202 0.039386168
0.24139409 0.29274765 0.75090712 -0.2660366 -0.85012722 -0.45623067 0.042208016
0.24413441 0.29230937 0.75001919 -0.33584347 -0.83134264 -0.44386369 0.043660503
0.24673316 0.29160091 0.74905217 -0.39573053 -0.81849933 -0.41716489 0.048906155
0.24918318 0.29097506 0.74734235 -0.45477691 -0.80605942 -0.37893507 0.052158531
0.25141686 0.28980333 0.74641961 -0.49402878 -0.79294848 -0.35688171 0.052168813
0.25333598 0.28831753 0.74573666 -0.51321024 -0.78604394 -0.3455658 0.048846141
0.25487423 0.28668496 0.74342173 -0.58884954 -0.74571133 -0.31295177 0.05167865
0.25554523 0.28495786 0.73465949 0.7111485 0.60185224 0.36923715 0.10543842
0.25744322 0.28355417 0.72781736 0.63905263 0.49057126 0.61664504 0.15531105
0.25975275 0.28280655 0.72522044 0.56946474 0.45419532 0.70151347 0.16646075
0.26219893 0.28228274 0.72424006 0.55396944 0.39587978 0.74871385 0.1624283
0.26485524 0.28205279 0.72361344 0.39946443 0.31192023 0.88108504 0.14199492
0.26760855 0.28183222 0.72308421 0.23496947 0.24990536 0.95118833 0.11812589
0.27049851 0.28162983 0.72249836 0.12831929 0.22962382 0.97279364 0.1004876
0.27337813 0.28148463 0.72204912 0.042418692 0.21436742 0.98084408 0.073608063
0.27613381 0.28144222 0.72204506 -0.028562335 0.219336 0.98085827 0.056627739
0.27899778 0.28145447 0.72210604 -0.086966403 0.23064616 0.9735744 0.051907521
0.28250179 0.28166214 0.72250724 -0.14870918 0.25355384 0.95887321 0.047566716
0.28504488 0.28181815 0.72307336 -0.19964175 0.28088623 0.94111717 0.041587502
0.28900823 0.2821866 0.7239477 -0.28252539 0.33888775 0.90077937 0.044908796
0.29328844 0.28248262 0.72529727 -0.35642609 0.42069584 0.83462524 0.05733661
0.29625246 0.2829946 0.7265597 -0.37161684 0.48638639 0.79106253 0.056754891
0.3010166 0.28364113 0.72917992 -0.36960286 0.59237272 0.71855706 0.047890361
0.30554199 0.28421679 0.73167694 -0.32183772 0.71554303 0.64081663 0.041274119
0.30742905 0.28488648 0.73197687 -0.28128135 0.76777655 0.615803 0.038829554
0.30969644 0.28554541 0.73248327 -0.22562267 0.82893288 0.59350055 0.033927821
0.31195349 0.28612304 0.73272014 0.17501926 -0.87038952 -0.57174766 0.02709993
0.31321734 0.28682324 0.73225087 0.12737796 -0.90488219 -0.57231539 0.025753891
0.33054519 0.29554373 0.75662661 -0.36134923 0.071116015 0.93180293 0.041435268
0.33320665 0.29557219 0.75765675 -0.25631085 0.050056033 0.96791345 0.036627389
0.33604065 0.29555854 0.75848508 -0.18358462 0.029789867 0.98707753 0.030831203
0.33904979 0.29554862 0.75896573 -0.093715332 0.042974122 1.0001611 0.029511698
0.34216386 0.2955451 0.75904727 -0.00059718802 0.023890572 1.0065511 0.018505102
0.34529376 0.29556105 0.75872344 0.067431644 0.032940667 1.0067937 0.01406314
0.3483972 0.29556403 0.75822598 -0.0073018274 0.018683841 0.9999764 0.0030264773
0.3514756 0.29556447 0.7582612 -0.013782855 0.015633125 1.0000769 0.0031984181
0.47075734 0.39176759 1.0060713 0.64267731 -0.73401463 -0.26294017 0.04612498
0.48232076 0.3951121 1.0176458 0.6147818 -0.69069117 -0.38372067 0.047567524
0.49504778 0.40339577 1.0343617 0.83272004 -0.85207182 -0.37135506 0.10410213
0.49623176 0.4039005 1.0367805 -0.97995198 1.0097662 0.32250643 0.13597678
0.51637161 0.41310394 1.0589275 0.85027933 -1.1386341 -0.30034846 0.072292998
0.53004527 0.42085004 1.0781502 0.87871289 -0.96978909 -0.39226666 0.059671596
0.52276373 0.41593078 1.0665303 0.70272654 -1.2624811 -0.058327515 0.054555185
0.54681098 0.42972499 1.1025029 1.1587009 0.19600728 -0.54514956 0.012072376
0.92927301 0.707147 1.814256 -3.4458115 1.9107217 -1.632689 0.067254134
0.93172401 0.70343798 1.804742 -3.0270834 1.5086975 -1.3679256 0.067254134
0.93352103 0.69904077 1.7955351 -0.63869977 -0.73956692 0.21237552 0.0073129567
1.258042 0.91388202 2.344655 0.88118416 -1.954045e-05 -0.47277313 0
1.316906 0.94946098 2.435936 0.87973249 -2.7735685e-05 -0.47546893 0
1.918056 1.332847 3.419553 0.87216514 -2.7863274e-19 -0.48921159 0
2.386888 1.646721 4.2248268 -0 0 1 0
2.4040339 1.646721 4.2248268 -0 0 1 0
2.421181 1.646721 4.2248268 0 0 1 0
2.438328 1.646721 4.2248268 0 0 1 0
2.4554739 1.646721 4.2248268 -0 0 1 0
2.472621 1.646721 4.2248268 -0 0 1 0
2.4897671 1.646721 4.2248268 0 0 1 0
2.5069139 1.646721 4.2248268 0 0 1 0
2.5069139 1.646721 4.2248268 0 0 1 0
2.5069139 1.646721 4.2248268 0 0 1 0
2.5069139 1.646721 4.2248268 0 0 1 0
2.5069139 1.646721 4.2248268 0 0 1 0
2.5069139 1.646721 4.2248268 0 0 1 0
2.5069139 1.646721 4.2248268 0 0 1 0
2.5069139 1.646721 4.2248268 0 0 1 0
-0.40832758 0.29359072 0.74646288 0.026640607 -0.71485168 -0.81956297 0.040270269
-0.40543047 0.29404676 0.74663514 0.063411862 -0.73247564 -0.77561545 0.043418903
-0.4022972 0.29470506 0.74630493 0.092063837 -0.76465309 -0.71637559 0.04256564
-0.39943975 0.29485351 0.74664289 0.12316635 -0.78763568 -0.65815449 0.043024782
-0.39698777 0.29449084 0.74786162 0.15812883 -0.80675489 -0.60330987 0.04484557
-0.39392841 0.29511595 0.74772853 0.14879492 -0.82657009 -0.57220024 0.044132646
-0.3910149 0.29537836 0.74801731 0.11865443 -0.85212141 -0.53261042 0.045557518
-0.38796142 0.29580072 0.74827498 0.052940104 -0.86679512 -0.50819123 0.047591627
-0.38509887 0.29573697 0.74864703 0.0032353736 -0.88784766 -0.47529751 0.047033399
-0.38235137 0.29541403 0.7491079 -0.059022419 -0.90513438 -0.43708077 0.050066926
-0.37885141 0.2952179 0.74834114 -0.14812423 -0.90974683 -0.40820089 0.051427495
-0.37550989 0.29458091 0.74754715 -0.22118971 -0.90400422 -0.38426691 0.048373263
-0.37292418 0.2936694 0.74755591 -0.27342138 -0.9021188 -0.35517415 0.044231433
-0.3681961 0.29265478 0.74425822 -0.36528927 -0.86846477 -0.34780943 0.042065125
-0.3575846 0.29102859 0.7337938 -0.53403449 -0.81661564 -0.26027009 0.040856589
-0.35525531 0.28964821 0.73288566 -0.49078348 -0.86709201 -0.1830142 0.028963301
-0.35365671 0.28860641 0.73319393 -0.43269274 -0.93314666 -0.12051664 0.023568362
-0.35213184 0.28820479 0.73445791 -0.31275696 -1.0446429 0.017044429 0.019563371
-0.33787403 0.27669626 0.7106111 -0.40976849 -0.94712979 -0.20117611 0.075078323
-0.3331798 0.27534434 0.70901781 -0.2485169 -1.0334603 -0.28379238 0.053338747
-0.32905522 0.27525723 0.70720869 0.069684885 -0.95957625 -0.35728231 0.034990922
-0.32577643 0.27601331 0.70633036 0.19708124 -0.91649395 -0.37330607 0.03126584
-0.32285205 0.2769089 0.7058596 0.25329751 -0.89461064 -0.38379994 0.030157186
-0.32022464 0.27719596 0.7065087 0.29607499 -0.88335747 -0.3767207 0.032466829
-0.31758302 0.2785683 0.70581067 0.33913749 -0.86509937 -0.37607667 0.032928329
-0.31520444 0.27929413 0.70646822 0.37989703 -0.85355765 -0.35947451 0.032122433
-0.31285745 0.27977297 0.70759511 0.40628961 -0.84403211 -0.35122165 0.032392837
-0.31051126 0.28047711 0.7084102 0.42816675 -0.8362605 -0.34373254 0.033093408
-0.30832204 0.28188783 0.70872587 0.44214088 -0.83573133 -0.32671615 0.032689292
-0.30618834 0.28277501 0.71010059 0.44986224 -0.83782828 -0.31017351 0.032083973
-0.30406672 0.2835497 0.71213025 0.44114479 -0.8481741 -0.29534566 0.033888943
-0.29287967 0.28756186 0.73051924 0.046364062 -0.94117051 -0.44813573 0.053434718
-0.29001117 0.2874102 0.73076779 -0.076545805 -0.92889464 -0.48186296 0.051469535
-0.28687531 0.28685269 0.73011541 -0.19271973 -0.90140897 -0.49385908 0.048907381
-0.27946874 0.28477487 0.7253201 -0.20839478 -0.88390291 -0.42178085 0.040689368
-0.27277207 0.28436139 0.71874142 -0.23404139 -0.83828348 -0.49905682 0.043205664
-0.26909551 0.28338939 0.71677905 -0.22042362 -0.80113471 -0.55831337 0.033467241
-0.26569259 0.28286672 0.71541756 -0.16794375 -0.77681255 -0.60714304 0.03425587
-0.26253289 0.28259656 0.71460593 -0.11171064 -0.74934018 -0.65302807 0.036040395
-0.25989348 0.28205335 0.71441448 -0.083802864 -0.7433157 -0.66385335 0.03124203
-0.25638902 0.28261444 0.71394342 -0.041667182 -0.71896136 -0.69513541 0.028908592
-0.25367677 0.28255123 0.71414822 -0.0278359 -0.73044688 -0.68328661 0.02683777
-0.25101349 0.28246972 0.71442026 -0.0083073787 -0.74098611 -0.67208153 0.025482023
-0.24839839 0.28243405 0.71483165 0.011161882 -0.75162852 -0.66086429 0.023572249
-0.24626195 0.28189281 0.71565217 0.020723779 -0.77569377 -0.63490772 0.023703828
-0.24359646 0.28184322 0.71605235 0.03086802 -0.7902056 -0.61622339 0.026539724
-0.24170709 0.28114301 0.71744591 0.045759287 -0.81362021 -0.58684576 0.027920669
-0.23877078 0.28147849 0.71775615 0.030114138 -0.80400962 -0.59724218 0.029446252
-0.23569846 0.28179887 0.71774107 -0.0062012048 -0.8014859 -0.60054451 0.028161285
-0.23187914 0.28273779 0.71666116 -0.076243535 -0.76190078 -0.65168959 0.025926271
-0.22850409 0.28327432 0.71593672 -0.13223006 -0.80792743 -0.59341842 0.024592219
-0.22567864 0.28284663 0.71597248 -0.20087866 -0.79614747 -0.59162176 0.026988739
-0.22272286 0.28236288 0.71549284 -0.2625688 -0.79048526 -0.57702851 0.026224311
-0.22000903 0.2816301 0.71516311 -0.33288136 -0.75426286 -0.59446496 0.024887322
-0.21727306 0.28086802 0.71433562 -0.40280935 -0.65538228 -0.65671664 0.022243446
-0.21214952 0.28076002 0.71171111 0.47599989 0.53478819 0.70048684 0.023262944
-0.21061975 0.279915 0.7113024 0.52492654 0.4495441 0.73963636 0.025480499
-0.20732874 0.27918702 0.70950925 0.59466004 0.34891143 0.76650167 0.030976443
-0.2014382 0.27911043 0.70300108 -0.66517001 -0.83807594 -0.50231051 0.040590942
-0.19945726 0.27671924 0.70361131 -0.73605853 -0.73331702 -0.58116633 0.037635449
-0.19907084 0.27372628 0.70561892 -0.87505758 -0.58637244 -0.80626541 0.033918776
-0.1740097 0.29033628 0.74100345 -0.013634835 -0.44842154 -0.98457801 0.037371732
-0.15138835 0.2902258 0.73511124 -0.26351616 -0.55444694 -0.96352351 0.043985121
-0.1483524 0.28941813 0.73437071 -0.24884589 -0.55644608 -0.93241161 0.048164789
-0.14383404 0.29008377 0.7316767 -0.21469264 -0.47333476 -0.96184963 0.065803707
-0.14167041 0.28887376 0.7317695 -0.21371529 -0.53075695 -0.93474525 0.068140179
-0.13851279 0.28866184 0.73110586 -0.19766332 -0.53038615 -0.91812176 0.070744246
-0.13580225 0.28793901 0.73088753 -0.17828645 -0.55821139 -0.88382846 0.070159651
-0.13255379 0.28795308 0.73017347 -0.16196334 -0.56625932 -0.852346 0.076490402
-0.12961167 0.28768259 0.72986144 -0.1473064 -0.58519012 -0.82565528 0.080675565
-0.12669337 0.28753409 0.72983134 0.15013225 0.61543179 0.78129941 0.086860493
-0.12365557 0.28745854 0.72955054 0.16227692 0.6334492 0.75956517 0.085871108
-0.12040532 0.28757706 0.7290926 0.16492276 0.63137895 0.75931478 0.092312224
-0.11767592 0.28726521 0.72910881 0.16881347 0.65992421 0.73260552 0.09905114
-0.11437155 0.2872493 0.7284205 0.20356244 0.68344724 0.71016884 0.097693078
-0.11190438 0.28668314 0.72843415 0.23494068 0.71878684 0.6692403 0.10512988
-0.10910406 0.28624496 0.72790527 0.28146693 0.74982047 0.63568902 0.10880457
-0.10587194 0.28601345 0.7268458 0.34910193 0.76781994 0.61416507 0.10706098
-0.10248301 0.2853784 0.72477621 0.61359227 0.71251839 0.50522178 0.1398216
-0.10004976 0.28434682 0.72283977 0.66140038 0.68879575 0.40279293 0.15274161
-0.096394621 0.28297153 0.71905792 0.69418204 0.71815896 0.32291904 0.086178228
-0.088907361 0.27481008 0.69682133 0.74022627 0.26844424 0.67444927 0.083769873
-0.086289562 0.27421871 0.69534135 0.76236862 0.30134863 0.71174794 0.08909411
-0.083072677 0.27364475 0.69308466 0.58420306 0.38934821 0.81100571 0.071264908
-0.079308331 0.27405336 0.69089377 -0.43750015 -0.49926391 -0.82298434 0.071217112
-0.076591931 0.27374205 0.69016004 -0.34806064 -0.52730352 -0.83945173 0.065714441
-0.074445084 0.27276734 0.69017315 -0.28470954 -0.51264316 -0.87090331 0.06120367
-0.072438024 0.27159676 0.69031644 -0.23223534 -0.49243486 -0.90008479 0.056029443
-0.069533624 0.27154964 0.68995994 -0.1788009 -0.51782691 -0.8955794 0.052720618
-0.067080826 0.27101687 0.69013518 -0.13908246 -0.51496947 -0.90228945 0.048039485
-0.064211279 0.27092224 0.69001317 -0.099169634 -0.53439754 -0.88935989 0.045161642
-0.061324451 0.27102008 0.69012594 -0.048135631 -0.53523952 -0.89970434 0.043506376
-0.058410615 0.27111128 0.69010878 -0.011360733 -0.56815183 -0.879673 0.042839695
-0.055520162 0.27124277 0.69007111 0.021152142 -0.60053164 -0.8462736 0.04357307
-0.052737206 0.27111024 0.69020891 0.046453033 -0.62534863 -0.82375228 0.045314543
-0.049947325 0.27101696 0.69027877 0.070925273 -0.65285516 -0.80157709 0.049147464
-0.047321782 0.27019402 0.69122136 0.11759333 -0.63556373 -0.81899625 0.054107103
-0.044462994 0.27039418 0.69129604 0.16403641 -0.67127794 -0.78055412 0.058328319
-0.04145968 0.27167335 0.69025892 0.20533416 -0.76444077 -0.67291403 0.061153825
-0.038702689 0.27185243 0.69109637 0.29175511 -0.76842219 -0.66169626 0.067124896
-0.035925452 0.27241686 0.69186795 0.38118723 -0.77721798 -0.62648964 0.071163915
-0.033172168 0.27292475 0.69343585 0.4695614 -0.73731697 -0.63377571 0.075094208
-0.030325692 0.27318969 0.69545734 0.57938468 -0.68338192 -0.67517227 0.07779371
-0.027652744 0.27429083 0.69699717 0.70714492 -0.63705528 -0.66839832 0.074856363
-0.014479809 0.29337716 0.74522638 0.11530668 0.233652 0.97170067 0.03888179
-0.011476314 0.29328176 0.74475425 0.1697461 0.29009339 0.96301681 0.040715747
-0.0083428444 0.29311234 0.74411863 0.1654937 0.32272032 0.96091354 0.039040927
-0.0052497583 0.29287747 0.74370718 0.1272305 0.3572512 0.95229179 0.042512774
-0.0022703519 0.29268399 0.74345326 0.079819813 0.43172005 0.92101765 0.0551924
0.00056091649 0.29276159 0.74321866 0.042818155 0.46854079 0.89904839 0.053291515
0.0035703178 0.29273561 0.74311471 -0.025200125 0.53723657 0.85199529 0.052374937
0.0066595334 0.29260182 0.74299717 -0.072254404 0.55976379 0.83242041 0.053549409
0.0097341016 0.29253948 0.74299937 -0.10014538 0.55990756 0.82582283 0.05030252
0.012806308 0.29255903 0.74319464 -0.14707403 0.59928399 0.79056543 0.056559276
0.01611745 0.29248103 0.74382383 -0.19509511 0.64109522 0.74645352 0.060435232
0.018989576 0.2928355 0.74430513 -0.22366484 0.68518281 0.7003271 0.057409007
0.021553239 0.29339206 0.74433166 0.21887648 -0.6944856 -0.69450074 0.05210169
0.023550343 0.29445484 0.74410218 -0.22972304 0.70252091 0.6816566 0.043595996
0.026507216 0.29508623 0.74475056 0.22778082 -0.72311515 -0.66024899 0.037146773
0.030015614 0.29541662 0.74594039 0.22888212 -0.71919894 -0.66566539 0.036477074
0.034144018 0.2947754 0.74908626 0.24198045 -0.722839 -0.67148769 0.035159796
0.037613422 0.29444039 0.75182515 0.21233684 -0.73031276 -0.68592149 0.034890246
0.040554896 0.29503754 0.75264138 0.16326667 -0.72827083 -0.7052232 0.034619577
0.043597907 0.29547834 0.75330985 0.11607233 -0.71482122 -0.7242083 0.035911195
0.046383243 0.29684266 0.7527017 0.098766878 -0.69533664 -0.73411733 0.036790166
0.049455982 0.29683727 0.75279546 0.061504539 -0.68906683 -0.7333563 0.038184412
0.052533913 0.29648072 0.75252891 0.027731486 -0.71975338 -0.6942904 0.033514593
0.055617828 0.29606861 0.75245929 -0.014522554 0.72184432 0.69784379 0.026342643
0.058690645 0.29544598 0.75269312 0.0048310417 0.69534582 0.72584999 0.020408627
0.061723273 0.29570943 0.75232911 0.031904884 0.63376838 0.77397531 0.015337609
0.064789928 0.29566711 0.75220841 0.050659809 0.59908706 0.7991823 0.013795961
0.067690708 0.29637623 0.75171316 0.035056453 0.60018116 0.79937494 0.01394173
0.070690498 0.29648978 0.75166452 0.02352218 0.59790272 0.80176038 0.013158408
0.073668182 0.29672959 0.75159854 0.019566042 0.61122036 0.79258895 0.016535822
0.076667495 0.29690757 0.75155717 0.01774984 0.61728764 0.78765905 0.017139819
0.079807185 0.29663929 0.75167632 0.01626936 0.6373049 0.77203071 0.020242097
0.082885437 0.29658306 0.75173944 0.013659493 0.65720409 0.75490534 0.022503749
0.08591453 0.29680029 0.75173736 0.019811561 0.68001592 0.73378587 0.02719547
0.088964805 0.29684713 0.75182199 -0.01234714 -0.70429218 -0.71025586 0.030305332
0.09200377 0.29710704 0.7516585 -0.028443575 -0.73834741 -0.67406201 0.040431712
0.095174044 0.29658079 0.75199914 -0.016767669 -0.76430613 -0.64478666 0.043887191
0.098162331 0.29682887 0.75166643 -0.032246005 -0.80531889 -0.59247589 0.050560165
0.1012615 0.29686862 0.75176585 -0.030079359 -0.84395444 -0.53560704 0.059736289
0.10432132 0.29690158 0.75160176 -0.034521867 -0.87716037 -0.47950652 0.06155913
0.10755826 0.29641479 0.75277078 -0.0084840395 -0.89616549 -0.44552821 0.058569774
0.11078496 0.29626358 0.75372553 0.0073595294 -0.91931456 -0.39466453 0.055453677
0.11365934 0.29687414 0.75272936 -0.011168011 -0.94180596 -0.33961859 0.053112861
0.11665124 0.29706776 0.75220329 -0.028447477 -0.9578253 -0.29215887 0.045673475
0.12050686 0.29630414 0.75680232 0.020506747 -0.96603423 -0.2607888 0.042713683
0.12254774 0.29650912 0.75072223 -0.057432432 -0.97998297 -0.19308294 0.031856366
0.12576096 0.29627863 0.75199372 -0.05587576 -0.98585135 -0.15969554 0.027438704
0.1282346 0.29515132 0.74854201 -0.086425357 -0.98665357 -0.13980888 0.023730772
0.13077354 0.29430264 0.74538469 -0.13265771 -0.97834229 -0.16038381 0.026446231
0.1337391 0.2933839 0.7456314 -0.15237892 -0.9773317 -0.14849742 0.028300956
0.13643919 0.29255444 0.74398828 -0.17555627 -0.97073609 -0.16681893 0.033378106
0.13867918 0.29271707 0.73828465 -0.16748947 -0.97248858 -0.22674908 0.04657647
0.14207874 0.29132611 0.74238724 -0.22014563 -0.95667261 -0.19934009 0.04610987
0.14508641 0.29067877 0.74324191 -0.23289542 -0.95765269 -0.17901455 0.046437114
0.14774023 0.29029733 0.74139136 -0.25126633 -0.94773394 -0.20551924 0.055783775
0.15040937 0.29083803 0.73797959 -0.23751646 -0.98326069 -0.23843485 0.045124408
0.15315546 0.29058528 0.73651862 -0.244572 -0.96097571 -0.33399111 0.030974593
0.15581261 0.29068071 0.73430312 -0.24111333 -0.89843476 -0.43225732 0.027670622
0.15862855 0.289471 0.73449606 -0.23622 -0.89970207 -0.4340851 0.026309211
0.16145751 0.28850552 0.73414296 -0.21743943 -0.88318962 -0.46342734 0.024770657
0.16403434 0.28878698 0.73210871 -0.17578796 -0.81793398 -0.56131887 0.019736771
0.16696064 0.28788808 0.73183751 -0.12903963 -0.81376725 -0.57419777 0.021083474
0.16965902 0.28788444 0.73080176 -0.09111347 -0.8018465 -0.59406537 0.022741767
0.17247277 0.28790694 0.73034191 -0.045411926 -0.80625403 -0.59241146 0.022579975
0.17503265 0.2885128 0.72970599 -0.001017735 -0.79611027 -0.60655361 0.020081278
0.17798781 0.28863227 0.72989541 0.046385698 -0.80639732 -0.59190184 0.020424569
0.18109322 0.28871763 0.73039484 0.090318963 -0.82297206 -0.56425071 0.022777561
0.1841823 0.2890521 0.73104382 0.13078816 -0.83781886 -0.53766388 0.024286278
0.18745835 0.28925112 0.73202068 0.16035216 -0.8568846 -0.49946353 0.028116086
0.19048709 0.28994688 0.73264641 0.17866328 -0.86446446 -0.48097709 0.032307431
0.19407775 0.29022816 0.73448986 0.21106559 -0.8865903 -0.42195779 0.035524108
0.19806607 0.29051548 0.73730952 0.2477679 -0.90259665 -0.36466053 0.032091755
0.19995017 0.29177955 0.73532999 0.19960189 -0.91641217 -0.35601228 0.033677038
0.20322593 0.29243922 0.73640805 0.20179842 -0.93131787 -0.31414747 0.030713903
0.20872824 0.2926085 0.74310541 0.19342834 -0.94902092 -0.256154 0.021948813
0.2116143 0.29346734 0.74323535 0.15925002 -0.95712072 -0.24742541 0.021620041
0.21688391 0.29354843 0.74939698 0.091874309 -0.9472037 -0.30756289 0.032458346
0.22018436 0.29399821 0.75043035 0.056187745 -0.93714809 -0.34466788 0.036369048
0.22307953 0.29451615 0.75032628 0.037997123 -0.93524247 -0.35293156 0.038811196
0.22652853 0.2942369 0.75153792 -0.0071764519 -0.92100537 -0.39431956 0.038913574
0.22951655 0.29426301 0.75154644 -0.042069107 -0.91536605 -0.41019571 0.036811486
0.23277071 0.29368737 0.75237495 -0.098774433 -0.88523442 -0.46885255 0.031030981
0.23500913 0.29488346 0.75005901 -0.12124196 -0.90799105 -0.40944162 0.039121158
0.23788358 0.29474017 0.74962896 -0.18290371 -0.90037608 -0.40283814 0.04245558
0.2407898 0.29402393 0.7495724 -0.24084857 -0.87910891 -0.41600159 0.043502443
0.24335216 0.29372063 0.74829394 -0.30412605 -0.87386537 -0.38377407 0.044702034
0.24585988 0.2928721 0.74755442 -0.36278924 -0.84794217 -0.38721213 0.044062424
0.24821229 0.2924732 0.74539715 -0.42341983 -0.84512264 -0.32635033 0.048566286
0.25035238 0.29109797 0.74485165 -0.46024314 -0.82455444 -0.32935262 0.043927103
0.25212029 0.2895492 0.74357677 -0.51186854 -0.8001917 -0.31257638 0.04706705
0.25355664 0.28777382 0.74110544 -0.58138144 -0.75920039 -0.29602885 0.052634966
0.25438109 0.28589129 0.73427957 -0.65268934 -0.68400973 -0.33791736 0.10381957
0.2566137 0.28579029 0.72822332 0.59450835 0.58551335 0.55894506 0.14868554
0.25892782 0.28493828 0.72527367 0.52967608 0.54096419 0.65746117 0.16778891
0.2615183 0.28447637 0.72363538 0.4852176 0.49169436 0.72361845 0.17193386
0.26459303 0.28448704 0.72267121 0.38732058 0.42356801 0.82452381 0.15352847
0.26756862 0.28446081 0.72230983 0.23936027 0.35644904 0.9070797 0.12991519
0.27062613 0.28439236 0.72200096 0.12974785 0.32024419 0.94007552 0.10904221
0.27346799 0.2842899 0.72177297 0.035267413 0.30835405 0.95251065 0.080368377
0.27608892 0.28424641 0.72171032 -0.023750715 0.30312717 0.95345628 0.063742086
0.27926427 0.28426665 0.72174031 -0.084702462 0.30889952 0.94798028 0.053403236
0.28245243 0.2844255 0.72214121 -0.1289774 0.32187983 0.93836385 0.050025661
0.28530753 0.28460035 0.72262698 -0.17946485 0.33864436 0.92425978 0.044776089
0.28822815 0.28481793 0.72319585 -0.22979364 0.37724298 0.89830625 0.047449809
0.29166305 0.28508827 0.72392172 -0.27694583 0.42833513 0.86214697 0.050757147
0.29418311 0.28537837 0.72445029 -0.30711144 0.48155996 0.82289559 0.059388872
0.2990737 0.28581321 0.72631341 -0.31869537 0.57686919 0.75719273 0.054782756
0.30307791 0.2861667 0.72782135 -0.28965211 0.67908561 0.69435042 0.047687721
0.30480105 0.28679547 0.72804928 -0.25938112 0.72069752 0.67348474 0.043790672
0.30773503 0.28731558 0.7289145 -0.20768474 0.79881328 0.6368342 0.040777441
0.31031919 0.2878001 0.72930199 -0.16786177 0.84568024 0.60057896 0.034192383
0.31257716 0.28827149 0.72931671 0.10969629 -0.89403355 -0.57997811 0.029898619
0.3303422 0.29869077 0.75689697 -0.31527564 0.00629684 0.95049506 0.02968692
0.33312443 0.29865927 0.75782484 -0.24442177 0.0011365726 0.97034138 0.026580004
0.33603618 0.2986325 0.75855809 -0.1858101 -0.0016795485 0.98342228 0.02233161
0.33906025 0.29861939 0.75897437 -0.090420879 0.0087477854 0.99898481 0.020427495
0.34221423 0.2986384 0.75878334 0.0032316954 0.015699642 1.0021728 0.011747045
0.34531987 0.2986418 0.75819343 -0.00088865007 0.013129753 0.99998087 0.0024485132
0.34839705 0.29864198 0.75821 -0.0068019531 0.010349121 1.0000703 0.0025428685
0.35147601 0.29864299 0.75830197 0 0 1 0
0.46114182 0.39040437 0.98914999 0.27106792 -1.2801807 0.066318035 0.045778342
0.4778178 0.39460346 1.0074161 0.51114517 -0.8193174 -0.28967619 0.051202804
0.50133193 0.40799329 1.0394834 0.69236374 -1.0750941 -0.073525079 0.07861045
0.4948566 0.40490863 1.0235859 0.83059621 -0.45554054 -0.34165111 0.080993205
0.50433707 0.41052294 1.0466982 0.82173157 -0.2172953 -0.55237734 0.10675114
1.918056 1.3467259 3.419553 0.87216514 -2.7863274e-19 -0.48921159 0
2.386888 1.663868 4.2248268 0 0 1 0
2.4040339 1.663868 4.2248268 0 0 1 0
2.421181 1.663868 4.2248268 -0 0 1 0
2.438328 1.663868 4.2248268 -0 0 1 0
2.4554739 1.663868 4.2248268 0 0 1 0
2.472621 1.663868 4.2248268 0 0 1 0
2.4897671 1.663868 4.2248268 -0 0 1 0
2.5069139 1.663868 4.2248268 -0 0 1 0
2.5069139 1.663868 4.2248268 -0 0 1 0
2.5069139 1.663868 4.2248268 -0 0 1 0
2.5069139 1.663868 4.2248268 -0 0 1 0
2.5069139 1.663868 4.2248268 -0 0 1 0
2.5069139 1.663868 4.2248268 -0 0 1 0
2.5069139 1.663868 4.2248268 -0 0 1 0
2.5069139 1.663868 4.2248268 -0 0 1 0
-0.40305597 0.29794866 0.74252671 0.03829515 -0.73447299 -0.75148481 0.041607402
-0.40034485 0.29766458 0.74294364 0.06971743 -0.75067008 -0.7236231 0.041874014
-0.39818859 0.2965489 0.74439329 0.095449694 -0.77945548 -0.68746692 0.041479267
-0.39561442 0.29628736 0.74528795 0.1131611 -0.80387539 -0.63175553 0.043037873
-0.39274886 0.29648823 0.74557024 0.098539345 -0.82247221 -0.59702253 0.043705404
-0.38958102 0.29693139 0.74532098 0.056372352 -0.84710753 -0.56551236 0.044540051
-0.38712519 0.29670617 0.74632895 0.016968749 -0.86196488 -0.52679557 0.046809327
-0.38388103 0.2968556 0.74599504 -0.060512409 -0.87022799 -0.50215268 0.050145067
-0.38028461 0.29675621 0.74505877 -0.1520763 -0.8741889 -0.48513964 0.050206713
-0.37729296 0.29615983 0.7447741 -0.20763098 -0.87100673 -0.45899984 0.048616603
-0.37388989 0.29552907 0.74378431 -0.28492555 -0.86044627 -0.44773102 0.046129726
-0.37017259 0.29460952 0.74199259 -0.36197141 -0.84295726 -0.42627192 0.052717321
-0.36388636 0.29402065 0.73740244 -0.50123787 -0.8165288 -0.37974402 0.04064101
-0.35423261 0.28962627 0.72826433 -0.56385607 -0.78879756 -0.24884212 0.015451084
-0.33870023 0.27913389 0.70723963 -0.56217438 -0.96459925 -0.25664991 0.059908476
-0.33374363 0.27788988 0.70382446 -0.26711819 -1.0064203 -0.38428929 0.037555192
-0.33011886 0.2780045 0.70242107 -0.049754135 -0.94601309 -0.43050659 0.033761628
-0.32678771 0.27879298 0.7014426 0.091231346 -0.90178299 -0.45444357 0.030167498
-0.32400769 0.27935877 0.70149475 0.18062538 -0.87984264 -0.4535718 0.027912362
-0.32138076 0.27979189 0.70180386 0.24760574 -0.86729562 -0.43965974 0.029650975
-0.31890577 0.2803992 0.70232558 0.30621132 -0.85693437 -0.41853535 0.030304503
-0.31640849 0.28117985 0.70253599 0.34377599 -0.84842038 -0.40553924 0.034273639
-0.31411383 0.28132105 0.70394367 0.3859807 -0.84485722 -0.37206256 0.034104999
-0.31181782 0.28155005 0.70544422 0.41483054 -0.83936214 -0.35255158 0.034289781
-0.30957371 0.28221181 0.70669287 0.43145525 -0.83696759 -0.33748868 0.033255998
-0.30730838 0.28376773 0.70665622 0.43197551 -0.84014457 -0.32841322 0.033537079
-0.30519125 0.28432527 0.70856851 0.43500936 -0.84576678 -0.30926806 0.033075843
-0.30306664 0.28478965 0.71096009 0.42342612 -0.85665423 -0.29628843 0.034856666
-0.30081311 0.28625098 0.71184248 0.39191484 -0.87634146 -0.28188768 0.041421786
-0.29118264 0.28853095 0.72642404 0.034569118 -0.95077187 -0.40220913 0.049646851
-0.28831124 0.28827187 0.72652334 -0.086323053 -0.93922019 -0.4504644 0.051566895
-0.2840274 0.28822896 0.72313946 -0.098505929 -0.91141057 -0.44788149 0.058242876
-0.28003159 0.28770149 0.72088826 -0.15905961 -0.87603867 -0.4805024 0.053611059
-0.27628037 0.28666472 0.71886188 -0.18299234 -0.85257995 -0.49359706 0.053311814
-0.27149293 0.28618088 0.71567231 -0.19642614 -0.78989577 -0.58228123 0.042678393
-0.2689319 0.28480545 0.71487504 -0.20076649 -0.75871366 -0.61984771 0.032717191
-0.26625118 0.28401843 0.71428585 -0.16302462 -0.74363446 -0.65008557 0.035011694
-0.26228586 0.28427115 0.71291512 -0.088299535 -0.6944319 -0.72296762 0.036040395
-0.26002562 0.28345773 0.71302378 -0.074485853 -0.69022459 -0.72539473 0.03068793
-0.25627726 0.28416643 0.71241993 -0.035404235 -0.66554701 -0.75412911 0.028885026
-0.25325927 0.28438276 0.71238625 -0.02297011 -0.66942573 -0.75163943 0.026805308
-0.2506457 0.28423408 0.71266115 -0.012429394 -0.68503797 -0.73272812 0.025482023
-0.24814488 0.28405944 0.71314299 0.0030797685 -0.7009384 -0.71514899 0.023572249
-0.24614222 0.28337735 0.71404153 0.0089430958 -0.73077309 -0.68348712 0.022559585
-0.23435761 0.28439215 0.71472079 -0.042611323 -0.7105912 -0.71670282 0.024752542
-0.23131004 0.28459859 0.71461415 -0.095573433 -0.72730553 -0.70053315 0.026259588
-0.22795691 0.28479847 0.71377653 -0.15598226 -0.77640146 -0.64238131 0.021933505
-0.22537081 0.2842204 0.71398729 -0.20639569 -0.77558243 -0.62771362 0.025389154
-0.22280048 0.28347567 0.71392196 -0.25771418 -0.7796914 -0.60000247 0.025093211
-0.22038071 0.28275913 0.71395648 -0.31144214 -0.76236445 -0.59039599 0.025989586
-0.21671426 0.28277189 0.71203429 -0.36528781 -0.6981914 -0.61733574 0.023087496
-0.21146406 0.28335035 0.70798099 -0.42938468 -0.83149374 -0.51045102 0.04656456
-0.20950037 0.28212658 0.70907062 0.47470263 0.59133142 0.6559357 0.028556002
-0.20716986 0.28147796 0.70819616 0.53560364 0.50788563 0.68157619 0.032627977
-0.20195311 0.27958286 0.70282423 -0.63224751 -0.8507213 -0.47696269 0.041012928
-0.19945529 0.27771148 0.70223832 -0.67843139 -0.79428184 -0.51223314 0.039934888
-0.19671454 0.2759614 0.70124745 -0.64451593 -0.80710799 -0.49447516 0.045100234
-0.19303477 0.27518722 0.69939864 -0.36700088 -0.92450279 -0.28899753 0.051319696
-0.16177769 0.27365777 0.68478411 0.32612467 0.85502917 0.50774586 0.045685671
-0.17386465 0.29313615 0.74047399 -0.10318124 -0.32800314 -1.1476947 0.038565028
-0.15079182 0.29271251 0.73307449 -0.33521378 -0.38266966 -1.1512011 0.050286226
-0.14798646 0.29164171 0.73257393 -0.2959154 -0.41525343 -1.0759411 0.053391282
-0.14377286 0.29225445 0.73063058 -0.25493589 -0.36131373 -1.0679986 0.068745069
-0.14187238 0.29060265 0.73089087 -0.23585446 -0.44664183 -1.0120565 0.072247811
-0.13857739 0.29051882 0.729918 -0.20704578 -0.44194296 -0.98580575 0.078096606
-0.13583942 0.28983995 0.72965652 -0.19451725 -0.47044304 -0.96283972 0.077844694
-0.13272548 0.28975239 0.72904742 -0.17117661 -0.46846551 -0.92963594 0.085006058
-0.12978669 0.28952539 0.7287302 0.15387708 0.48679477 0.90095484 0.087765887
-0.12693454 0.28937069 0.72858196 0.16220123 0.50350958 0.87275136 0.09341155
-0.12390137 0.28930041 0.72824836 0.17658 0.51427883 0.85726237 0.089179091
-0.12058716 0.28948346 0.72780979 0.17801055 0.51015413 0.8587271 0.09177053
-0.11778099 0.28922141 0.72772533 0.18682045 0.5330227 0.83838421 0.098726466
-0.11444935 0.28925568 0.72695225 0.22159186 0.55533409 0.80738795 0.092209078
-0.11172275 0.28885025 0.72655708 0.2639285 0.57890642 0.77914762 0.097615466
-0.10869755 0.28855133 0.72581089 0.32017818 0.59293407 0.75482935 0.10238263
-0.10481685 0.28836635 0.72419435 0.46571767 0.59875518 0.71111101 0.1150536
-0.099142946 0.28723705 0.71952593 0.70294708 0.45564881 0.55258095 0.11434902
-0.097125553 0.28574076 0.71724361 0.74233025 0.50097007 0.45576501 0.080891922
-0.092436649 0.27889457 0.70042348 0.80440825 0.29317918 0.53255063 0.052057236
-0.089146562 0.27739421 0.69646138 0.76488638 0.27941293 0.63978577 0.091675498
-0.086928681 0.27640867 0.6948145 -0.72276425 -0.32609844 -0.69440544 0.093939207
-0.083945505 0.27549776 0.69277686 -0.66802782 -0.42719501 -0.70944524 0.085671365
-0.080385394 0.27525198 0.69066471 -0.47747913 -0.51400834 -0.7853846 0.06956777
-0.077355504 0.27501708 0.68951666 -0.37170711 -0.55847722 -0.79495156 0.065389603
-0.074920684 0.27427438 0.68919986 -0.30293995 -0.56428695 -0.82069647 0.062171195
-0.072706871 0.27334401 0.68928337 -0.24775776 -0.54700333 -0.84562576 0.056536332
-0.069761336 0.27327618 0.68884766 -0.19585614 -0.57162309 -0.84086436 0.05263314
-0.067260079 0.27274975 0.68895787 -0.15898278 -0.57338578 -0.84739137 0.049230997
-0.06427183 0.27284384 0.68879133 -0.11596043 -0.583713 -0.84521449 0.045404028
-0.061341997 0.272825 0.68878722 -0.073002033 -0.60024476 -0.83312786 0.042658735
-0.058362752 0.27294949 0.68850583 -0.045715369 -0.6371128 -0.8010518 0.041018076
-0.055456299 0.27299631 0.68832892 -0.013685555 -0.66905206 -0.76877993 0.043259475
-0.052662544 0.27297032 0.68847221 0.0096594533 -0.69289911 -0.74351794 0.044159826
-0.049870506 0.27282089 0.68842995 0.030746026 -0.72175872 -0.71416754 0.047019593
-0.047293145 0.27178112 0.68959278 0.082090639 -0.70810306 -0.73429495 0.052550372
-0.044399682 0.27218676 0.68927014 0.11830738 -0.75433528 -0.67751598 0.056086075
-0.041343033 0.27318618 0.6876862 0.15841484 -0.8394559 -0.56336707 0.054763038
-0.038571607 0.27338719 0.68826151 0.24871603 -0.85814375 -0.53241593 0.05823857
-0.035774563 0.27395305 0.68881601 0.35165986 -0.87719017 -0.49005392 0.061536055
-0.033045474 0.27432123 0.69089448 0.46835685 -0.84329158 -0.50162935 0.067810193
-0.030265586 0.27509683 0.692945 0.55136681 -0.7997939 -0.50021362 0.07555753
-0.027522529 0.2760779 0.69514745 0.72398823 -0.73836654 -0.5255338 0.068529308
-0.014439761 0.29603899 0.74445969 0.15394087 0.31964922 0.94763565 0.039777331
-0.011455514 0.29588774 0.74380994 0.2075028 0.38060084 0.93180674 0.040613201
-0.0083334679 0.2957404 0.74302775 0.2007243 0.42297521 0.92443335 0.03827535
-0.0051621785 0.29527166 0.74238974 0.15385078 0.50724339 0.89232904 0.051340826
-0.0022929676 0.29521525 0.74214405 0.10798015 0.5348736 0.86811739 0.04763921
0.00063465268 0.29513639 0.74181139 0.042904466 0.61812568 0.81273657 0.051363897
0.0036569207 0.29499051 0.74148279 0.0032597654 0.61872399 0.80644703 0.051871374
0.0068694931 0.29477993 0.74157488 -0.047747329 0.63064438 0.78987843 0.050933808
0.0099408207 0.29466039 0.74156278 -0.083477892 0.64558744 0.76922381 0.055968188
0.013016511 0.29462838 0.74169141 -0.12804173 0.66901869 0.73997772 0.060751803
0.01644876 0.29438311 0.74223906 -0.16750622 0.65304708 0.74297774 0.056705013
0.019460732 0.29453972 0.74272716 -0.20097186 0.6873737 0.7050994 0.055673167
0.021980179 0.29525346 0.74288964 0.21288477 -0.70641416 -0.68221885 0.05098851
0.023635263 0.29668593 0.74223292 0.24251436 -0.6887449 -0.68612218 0.040475231
0.027015112 0.29670009 0.743016 0.22129577 -0.68752736 -0.7009753 0.034876123
0.030755393 0.29651165 0.7447595 0.24082927 -0.68904907 -0.70508593 0.032905202
0.03461669 0.29571235 0.74790329 0.25329182 -0.70353496 -0.70059299 0.031585291
0.05553107 0.29814094 0.75074482 -0.030610733 0.71056587 0.7086277 0.025117286
0.058567926 0.29757857 0.75088477 -0.018790657 0.71342653 0.71550816 0.018082464
0.061591379 0.29804903 0.75058997 -0.0020628704 0.6650489 0.75332576 0.014923317
0.064643115 0.29810417 0.75067759 0.03278299 0.62369394 0.78183383 0.013837591
0.067584254 0.29870343 0.75025672 0.024397785 0.6129145 0.78987622 0.013678
0.0706219 0.2986978 0.7502687 0.016750157 0.60959452 0.79260147 0.014455293
0.073624499 0.29890054 0.75026816 0.020654015 0.61507171 0.78864974 0.016727611
0.076650597 0.29894349 0.75023198 0.020816851 0.619129 0.78549784 0.016857609
0.079760529 0.29878151 0.75034517 0.035002563 0.63996458 0.76884723 0.021832554
0.082846686 0.29861182 0.75040179 0.034687564 0.65431428 0.75663537 0.023607964
0.085875817 0.29861873 0.75031418 0.039814577 0.68267161 0.73095852 0.028326925
0.088953562 0.29853517 0.75041294 -0.036712568 -0.70932192 -0.70485115 0.030864948
0.091947354 0.29873514 0.750256 -0.056662589 -0.74876213 -0.66114372 0.04032455
0.095152564 0.29806754 0.75072497 -0.048739843 -0.777183 -0.62828606 0.04465789
0.098075598 0.29834685 0.75028664 -0.070044033 -0.81266791 -0.57946581 0.052645657
0.10110332 0.29816359 0.75019932 -0.071769707 -0.84685475 -0.52714741 0.062822275
0.1041221 0.29798207 0.75010103 -0.071688764 -0.87836385 -0.47290331 0.063694678
0.10731208 0.29719421 0.75124156 -0.041121524 -0.90305167 -0.42879394 0.061629862
0.11045289 0.2969636 0.7519266 -0.020002795 -0.92149383 -0.39175069 0.058516279
0.11340125 0.2972216 0.75138927 -0.031469062 -0.94213766 -0.34121621 0.051530205
0.11631608 0.29738212 0.7505796 -0.054400735 -0.96063691 -0.27609336 0.045967903
0.11947029 0.29694864 0.75156766 -0.048058167 -0.97117925 -0.23811091 0.040855877
0.12173817 0.29613996 0.7464394 -0.091967098 -0.97585094 -0.19826911 0.029180428
0.12515713 0.29562786 0.74919319 -0.073297262 -0.98339278 -0.16633131 0.026450822
0.12730464 0.29469019 0.74373609 -0.11168277 -0.97888875 -0.17252705 0.026544716
0.12970297 0.2940478 0.73990583 -0.14917463 -0.96511847 -0.2157508 0.03480522
0.13249037 0.29348281 0.73881805 -0.15665685 -0.96143442 -0.23256607 0.042588647
0.13496765 0.29444462 0.73497063 -0.13113347 -0.94758004 -0.31333271 0.045954209
0.13772075 0.29480013 0.73376876 -0.13165572 -0.93354416 -0.35970113 0.045073718
0.14090852 0.2939741 0.73486108 -0.16417049 -0.94832975 -0.33726707 0.043078609
0.14396472 0.29312065 0.73561412 -0.18195352 -0.96123374 -0.32016873 0.040394314
0.14684612 0.29278502 0.73515534 -0.20522374 -0.94771415 -0.34969971 0.03695311
0.1496706 0.29270041 0.73413563 -0.21547727 -0.91893739 -0.40803814 0.03266428
0.15249355 0.29237598 0.73337579 -0.22209296 -0.89061517 -0.44968536 0.029119348
0.15523194 0.2922253 0.73206073 -0.22165255 -0.85262954 -0.50244099 0.026117282
0.15804929 0.29124087 0.73192942 -0.21669319 -0.83646429 -0.52846032 0.02247861
0.16082896 0.2906875 0.73110867 -0.19635338 -0.79754639 -0.58165282 0.018097566
0.16348392 0.29092738 0.72971034 -0.16562526 -0.75709283 -0.63544077 0.015701618
0.16645713 0.28983507 0.7296111 -0.13861293 -0.76844364 -0.62738872 0.018381091
0.16920042 0.28983083 0.72871673 -0.099601731 -0.76613069 -0.63611007 0.020125307
0.17218493 0.28951913 0.72859454 -0.053798601 -0.77775025 -0.62708145 0.0206802
0.17475314 0.29020402 0.72787398 -0.012631723 -0.7747823 -0.63246554 0.019769412
0.17779335 0.29022211 0.72818226 0.028409779 -0.78659511 -0.61772203 0.020381344
0.1808897 0.29025763 0.72861922 0.066989049 -0.80557746 -0.59103417 0.022486612
0.18401262 0.29047331 0.72925401 0.10204638 -0.82208371 -0.56424218 0.024480009
0.18727277 0.29058304 0.7301355 0.12838224 -0.84495515 -0.52564675 0.028123114
0.19034459 0.29108179 0.73079962 0.14718522 -0.85911208 -0.49871907 0.031575281
0.1937944 0.29126516 0.73222023 0.17663619 -0.87979698 -0.44975397 0.035877559
0.19753294 0.29141718 0.734339 0.20277874 -0.90104586 -0.39324999 0.036662374
0.19951761 0.29262704 0.73254299 0.16168302 -0.91542149 -0.37510088 0.037623987
0.20284562 0.2929405 0.73367524 0.16946913 -0.93119013 -0.32992867 0.034961898
0.20647006 0.29320773 0.73554856 0.16285516 -0.94761693 -0.279443 0.028157406
0.20986286 0.29344207 0.7367571 0.14925119 -0.96015656 -0.23928246 0.023477094
0.21647462 0.29418573 0.74688989 0.12141389 -0.95549101 -0.26949912 0.027855011
0.21969473 0.29492167 0.74793291 0.088978022 -0.95161813 -0.29500392 0.033083815
0.22265734 0.29534745 0.74817556 0.051004238 -0.94887155 -0.31186652 0.033870891
0.22599632 0.29531735 0.74928403 0.015041182 -0.93765515 -0.34847471 0.036621332
0.2288193 0.29568109 0.74897903 -0.021373227 -0.93174392 -0.36348084 0.036785752
0.23202285 0.29542613 0.74971098 -0.055795368 -0.93390203 -0.3744477 0.038073167
0.23424418 0.29634118 0.74755156 -0.099653363 -0.93695211 -0.33942401 0.040619489
0.23709139 0.29624501 0.74722528 -0.16005111 -0.93328714 -0.33256403 0.043183468
0.23994811 0.29560351 0.74722731 -0.22741044 -0.91355848 -0.34407899 0.045285661
0.2423483 0.29539734 0.74544281 -0.28428054 -0.90778309 -0.3101415 0.043863621
0.24492507 0.29444054 0.74494851 -0.33303833 -0.89381588 -0.30059978 0.045194205
