# .PCD v0.7 - Point Cloud Data file format
VERSION 0.7
FIELDS x y z rgb
SIZE 4 4 4 4
TYPE F F F F
COUNT 1 1 1 1
WIDTH 1038
HEIGHT 1
VIEWPOINT 0 0 0 1 0 0 0
POINTS 1038
DATA ascii
-1.09992 0.37042335 2.1206977 4.8896012e-39
-1.0885688 0.36949185 2.1153648 7.2845169e-39
-1.0799835 0.36949185 2.1153648 1.1430805e-38
-1.071099 0.36938864 2.114774 1.0235507e-38
-1.0619229 0.36918238 2.1135931 9.776687e-39
-1.0568855 0.37042335 2.1206977 9.9632405e-39
-1.0473983 0.37011233 2.118917 6.4609024e-39
-1.0390896 0.37021592 2.1195104 5.7226157e-39
-1.0281847 0.36938864 2.114774 5.5374929e-39
-1.0215993 0.37011233 2.118917 5.1672629e-39
-1.0113014 0.36949185 2.1153648 7.2892057e-39
-1.0038381 0.36990526 2.1177316 1.1435138e-38
-0.99552166 0.37000877 2.1183243 1.3370506e-38
-0.98858404 0.37063098 2.1218865 1.1709179e-38
-0.97696036 0.36949185 2.1153648 7.8358999e-39
-0.97217798 0.37094286 2.123672 7.3788818e-39
-0.96194005 0.3703196 2.1201038 7.4735927e-39
-0.95306867 0.37021592 2.1195104 6.3711982e-39
-0.94288278 0.36959511 2.1159561 5.3574022e-39
-0.93717629 0.37073487 2.1224813 5.0790147e-39
-0.93091094 0.37167266 2.1278501 6.0931778e-39
-0.92383295 0.37230048 2.1314445 5.0790259e-39
-0.91854417 0.37366807 2.1392741 5.5399914e-39
-0.9080658 0.37293044 2.135051 4.9864575e-39
-0.90016216 0.37324619 2.1368587 5.5392712e-39
-0.89401299 0.37430266 2.1429071 5.9962794e-39
-0.88406479 0.37377369 2.1398787 6.6420062e-39
-0.87587517 0.37398511 2.141089 7.0136712e-39
-0.86620563 0.37356251 2.1386697 4.7095133e-39
-0.85631633 0.37303564 2.1356533 5.4467196e-39
-0.84740967 0.37293044 2.135051 5.6293102e-39
-0.83568084 0.37156823 2.1272523 6.3639984e-39
-0.82844394 0.37219569 2.1308446 8.3930309e-39
-0.81680727 0.37083885 2.1230764 7.3831992e-39
-0.8097803 0.37156823 2.1272523 5.1704915e-39
-0.80047202 0.37125528 2.1254606 4.8931941e-39
-0.79095757 0.37083885 2.1230764 3.7861221e-39
-0.77862912 0.36907935 2.1130033 4.4329222e-39
-0.77264112 0.3703196 2.1201038 4.0627048e-39
-0.76339531 0.37000877 2.1183243 4.4286104e-39
-0.75311226 0.36918238 2.1135931 5.7186206e-39
-0.745992 0.36990526 2.1177316 6.7316935e-39
-0.73863679 0.37052712 2.1212919 6.4558311e-39
-0.72941434 0.37021592 2.1195104 4.3378525e-39
-0.72081226 0.37021592 2.1195104 4.5226067e-39
-0.71240962 0.3703196 2.1201038 4.7995537e-39
-0.7051875 0.37104693 2.1242678 5.2601886e-39
-0.69695717 0.37125528 2.1254606 4.9846891e-39
-0.68755883 0.37083885 2.1230764 3.8797709e-39
-0.67932332 0.37104693 2.1242678 4.9825143e-39
-0.67258906 0.37209097 2.130245 5.3480626e-39
-0.66394341 0.37209097 2.130245 1.1152401e-38
-0.65696144 0.37303564 2.1356533 1.1893595e-38
-0.64756316 0.37261519 2.1332462 1.1067787e-38
-0.64125425 0.37398511 2.141089 1.0148704e-38
-0.63131475 0.37324619 2.1368587 1.1068509e-38
-0.62281805 0.37335157 2.1374621 1.346597e-38
-0.61241412 0.37230048 2.1314445 1.5582907e-38
-0.60529727 0.37324619 2.1368587 9.7810002e-39
-0.59645647 0.3731409 2.136256 1.014977e-38
-0.58580285 0.37188169 2.1290469 1.3741091e-38
-0.57716209 0.37188169 2.1290469 1.3646755e-38
-0.56756365 0.37125528 2.1254606 1.1528781e-38
-0.55784112 0.37052712 2.1212919 1.0420626e-38
-0.5504657 0.37135953 2.1260574 1.5769392e-38
-0.53986615 0.37000877 2.1183243 1.2816608e-38
-0.53275955 0.37104693 2.1242678 1.714443e-38
-0.5209226 0.36877057 2.1112356 1.3093597e-38
-0.51407433 0.37000877 2.1183243 1.2632236e-38
-0.50378555 0.36877057 2.1112356 1.2449664e-38
-0.49687982 0.37000877 2.1183243 1.4571231e-38
-0.48869273 0.3703196 2.1201038 1.502896e-38
-0.47821343 0.36887345 2.1118245 8.8529231e-39
-0.47320643 0.37167266 2.1278501 9.0373395e-39
-0.4640488 0.37125528 2.1254606 1.0971654e-38
-0.45478418 0.37073487 2.1224813 1.060356e-38
-0.44717294 0.37156823 2.1272523 8.0231722e-39
-0.43817008 0.37125528 2.1254606 1.4200644e-38
-0.43099582 0.37251022 2.1326454 1.7519319e-38
-0.42234042 0.37251022 2.1326454 1.1896131e-38
-0.41368502 0.37251022 2.1326454 1.2446418e-38
-0.40514377 0.37261519 2.1332462 1.1709569e-38
-0.39726949 0.37335157 2.1374621 1.7419946e-38
-0.38947421 0.37419674 2.1423008 2.2858769e-38
-0.37927714 0.37272021 2.1338475 2.1850366e-38
-0.37113988 0.37324619 2.1368587 1.4842061e-38
-0.36328769 0.37409088 2.1416948 1.3923345e-38
-0.35439503 0.37387937 2.1404836 1.1065292e-38
-0.3453173 0.37345701 2.1380658 8.2072285e-39
-0.33635497 0.3731409 2.136256 7.1051886e-39
-0.32759246 0.37303564 2.1356533 5.8148169e-39
-0.31820676 0.37219569 2.1308446 1.1895058e-38
-0.30973303 0.37240532 2.1320448 1.0145122e-38
-0.30065674 0.37188169 2.1290469 1.8532406e-38
-0.2917698 0.37156823 2.1272523 2.2863796e-38
-0.28329548 0.37177715 2.1284482 1.7424978e-38
-0.27442566 0.37146384 2.1266546 1.5493934e-38
-0.26557079 0.37115109 2.1248641 1.4385413e-38
-0.25687489 0.37104693 2.1242678 1.4941109e-38
-0.24846263 0.37135953 2.1260574 1.798107e-38
-0.24050936 0.37240532 2.1320448 1.8075036e-38
-0.2311404 0.37125528 2.1254606 1.6035552e-38
-0.2228896 0.37188169 2.1290469 1.4289231e-38
-0.21436939 0.37209097 2.130245 1.318614e-38
-0.20583956 0.37230048 2.1314445 1.1617382e-38
-0.19702263 0.3719863 2.1296458 9.586905e-39
-0.18875107 0.37272021 2.1338475 1.3368013e-38
-0.18029407 0.3731409 2.136256 1.641226e-38
-0.17152722 0.37293044 2.135051 1.8439127e-38
-0.16258696 0.37230048 2.1314445 1.2726593e-38
-0.15454556 0.37377369 2.1398787 1.0055809e-38
-0.14500014 0.37156823 2.1272523 1.5034355e-38
-0.13705984 0.37345701 2.1380658 2.1943284e-38
-0.12827377 0.3731409 2.136256 1.9915349e-38
-0.11936794 0.37240532 2.1320448 1.7425703e-38
-0.1108711 0.37293044 2.135051 1.1437653e-38
-0.10232136 0.37335157 2.1374621 1.1436947e-38
-0.093593568 0.3731409 2.136256 1.1162138e-38
-0.084732249 0.37230048 2.1314445 1.5123679e-38
-0.076188974 0.37282529 2.134449 1.1439817e-38
-0.067431204 0.37230048 2.1314445 9.3185942e-39
-0.058615658 0.37125528 2.1254606 8.7665008e-39
-0.05027169 0.37335157 2.1374621 1.024093e-38
-0.0415264 0.37272021 2.1338475 1.2361075e-38
-0.032931097 0.37345701 2.1380658 1.8533498e-38
-0.024226334 0.37303564 2.1356533 1.558541e-38
-0.015532441 0.37240532 2.1320448 1.7160657e-38
-0.0068852995 0.37272021 2.1338475 1.531461e-38
0.0017729769 0.37230048 2.1314445 1.4301544e-38
0.010449978 0.37324619 2.1368587 1.9464808e-38
0.019095525 0.37272021 2.1338475 1.5767612e-38
0.02777929 0.37303564 2.1356533 2.1390832e-38
0.03633415 0.37188169 2.1290469 2.2406425e-38
0.045076352 0.37272021 2.1338475 1.8811175e-38
0.053525422 0.37125528 2.1254606 1.2636604e-38
0.062116779 0.37104693 2.1242678 1.7893546e-38
0.07075803 0.37115109 2.1248641 9.3135873e-39
0.079560481 0.3719863 2.1296458 1.1436957e-38
0.088030368 0.37125528 2.1254606 1.4938944e-38
0.096602365 0.37104693 2.1242678 9.6844984e-39
0.10519425 0.37094286 2.123672 9.226044e-39
0.11324146 0.36907935 2.1130033 8.4859552e-39
0.12202147 0.36969844 2.1165476 8.489195e-39
0.13072117 0.37000877 2.1183243 8.4866727e-39
0.13869752 0.36835968 2.1088831 8.3951889e-39
0.14812294 0.37052712 2.1212919 1.448081e-38
0.15673226 0.37052712 2.1212919 1.4107724e-38
0.16524898 0.3703196 2.1201038 8.5802934e-39
0.17361039 0.36980182 2.1171396 1.2360316e-38
0.18240689 0.37021592 2.1195104 1.2174114e-38
0.19084868 0.36990526 2.1177316 1.5862671e-38
0.19961105 0.37021592 2.1195104 2.138975e-38
0.20862198 0.37094286 2.123672 2.2771596e-38
0.2173629 0.37115109 2.1248641 1.6687757e-38
0.22585994 0.37094286 2.123672 1.3556e-38
0.23494023 0.37167266 2.1278501 1.0881597e-38
0.24391894 0.37219569 2.1308446 1.1620971e-38
0.25256702 0.37219569 2.1308446 1.4202474e-38
0.26195237 0.37324619 2.1368587 1.5031144e-38
0.27001518 0.37240532 2.1320448 1.0701554e-38
0.27882519 0.37261519 2.1332462 1.2267452e-38
0.28756404 0.37272021 2.1338475 1.4941115e-38
0.29630783 0.37282529 2.134449 1.0793021e-38
0.30522871 0.3731409 2.136256 7.7480595e-39
0.31336823 0.37251022 2.1326454 1.521411e-38
0.3225688 0.3731409 2.136256 1.4013729e-38
0.33161315 0.37356251 2.1386697 1.5028622e-38
0.3395257 0.37272021 2.1338475 2.2030456e-38
0.34867734 0.37324619 2.1368587 2.166453e-38
0.35654479 0.37240532 2.1320448 1.7975638e-38
0.36633253 0.37356251 2.1386697 1.8803944e-38
0.37448344 0.37303564 2.1356533 2.1297893e-38
0.38390914 0.37377369 2.1398787 1.9541522e-38
0.39203984 0.37324619 2.1368587 9.7723794e-39
0.40082547 0.37335157 2.1374621 1.1059511e-38
0.41019526 0.37398511 2.141089 1.1244637e-38
0.41912198 0.37419674 2.1423008 1.8622812e-38
0.42588839 0.37251022 2.1326454 2.0928419e-38
0.43503395 0.37293044 2.135051 1.5490323e-38
0.44357401 0.37282529 2.134449 1.2358163e-38
0.45338714 0.37377369 2.1398787 1.2906671e-38
0.4620719 0.37377369 2.1398787 1.6133169e-38
0.47022504 0.37335157 2.1374621 1.4200296e-38
0.4787648 0.37324619 2.1368587 1.7797719e-38
0.48729977 0.3731409 2.136256 1.8164345e-38
0.4959698 0.3731409 2.136256 2.2308824e-38
0.5039289 0.37261519 2.1332462 1.8529854e-38
0.51186562 0.37209097 2.130245 1.0052185e-38
0.52242219 0.37345701 2.1380658 7.9320626e-39
0.53035069 0.37293044 2.135051 1.1525163e-38
0.53780258 0.37209097 2.130245 1.7149433e-38
0.54552722 0.37146384 2.1266546 1.5672528e-38
0.55431402 0.37156823 2.1272523 1.4752362e-38
0.56310576 0.37167266 2.1278501 1.4474719e-38
0.57222414 0.3719863 2.1296458 1.6961141e-38
0.57891327 0.37073487 2.1224813 1.5672181e-38
0.58802193 0.37104693 2.1242678 1.143479e-38
0.59798563 0.37188169 2.1290469 8.6689171e-39
0.60526472 0.37104693 2.1242678 1.4662723e-38
0.61509424 0.37177715 2.1284482 1.7880929e-38
0.62338209 0.37156823 2.1272523 1.207799e-38
0.63326114 0.37230048 2.1314445 1.2540419e-38
0.6429978 0.37293044 2.135051 1.1616658e-38
0.65056217 0.37230048 2.1314445 7.2848925e-39
0.6623829 0.37409088 2.1416948 6.5523763e-39
0.66617525 0.37135953 2.1260574 1.0423902e-38
0.67995948 0.37419674 2.1423008 1.2542952e-38
0.6872927 0.37345701 2.1380658 1.2266335e-38
0.6965602 0.37377369 2.1398787 1.5767238e-38
0.70604324 0.37419674 2.1423008 1.4843851e-38
0.71413159 0.37387937 2.1404836 1.0879091e-38
0.72322774 0.37409088 2.1416948 7.6547638e-39
0.73150599 0.37387937 2.1404836 7.1952066e-39
0.73852283 0.37303564 2.1356533 8.3022702e-39
0.74697971 0.37293044 2.135051 8.5802976e-39
0.75692564 0.37356251 2.1386697 6.2750524e-39
0.76733959 0.37440863 2.1435139 6.1814302e-39
0.7755999 0.37419674 2.1423008 8.9469614e-39
0.78385085 0.37398511 2.141089 1.0696155e-38
0.79186869 0.37366807 2.1392741 1.0514293e-38
0.80032486 0.37356251 2.1386697 1.6598854e-38
0.80946201 0.37377369 2.1398787 2.2216287e-38
0.8188411 0.37409088 2.1416948 1.8343695e-38
0.82800168 0.37430266 2.1429071 1.1620248e-38
0.83812207 0.37493941 2.1465526 1.5769071e-38
0.84611422 0.37462077 2.1447282 1.7983188e-38
0.85530329 0.37483314 2.1459441 1.7612964e-38
0.86254573 0.37419674 2.1423008 1.2169825e-38
0.87099385 0.37409088 2.1416948 1.5767982e-38
0.8811816 0.37472692 2.1453359 2.1202859e-38
0.88913268 0.37440863 2.1435139 2.0189067e-38
0.89885008 0.37483314 2.1459441 2.0187599e-38
0.90755945 0.37483314 2.1459441 1.1520489e-38
0.91600919 0.37472692 2.1453359 1.3459867e-38
0.92366916 0.37430266 2.1429071 1.5487082e-38
0.92999715 0.37335157 2.1374621 1.4378911e-38
0.93761319 0.37293044 2.135051 1.336584e-38
0.94176346 0.37115109 2.1248641 1.106348e-38
0.95199037 0.37177715 2.1284482 1.494144e-38
0.95901108 0.37115109 2.1248641 1.9449322e-38
0.96736336 0.37104693 2.1242678 2.1479062e-38
0.97598475 0.37104693 2.1242678 1.7154488e-38
0.98405397 0.37083885 2.1230764 1.7522577e-38
0.98796064 0.36907935 2.1130033 1.1250747e-38
0.99542505 0.36866778 2.110647 6.5484093e-39
1.0028728 0.36825711 2.1082959 7.5640199e-39
1.0139707 0.36918238 2.1135931 1.4015542e-38
1.0216931 0.36887345 2.1118245 1.6223906e-38
1.0340135 0.37021592 2.1195104 1.6683808e-38
1.0408672 0.36959511 2.1159561 1.530376e-38
1.047698 0.36897635 2.1124136 1.4101963e-38
1.0556822 0.36877057 2.1112356 1.2813379e-38
1.0648446 0.36897635 2.1124136 1.3555276e-38
1.0719224 0.36846232 2.1094708 1.6316831e-38
1.0819912 0.36897635 2.1124136 9.2184854e-39
1.092088 0.36949185 2.1153648 5.9959642e-39
1.1049957 0.37094286 2.123672 5.6257341e-39
1.1117436 0.3703196 2.1201038 4.6130199e-39
1.1244415 0.37167266 2.1278501 5.7218912e-39
1.1264291 0.36949185 2.1153648 8.3944813e-39
1.1410719 0.37146384 2.1266546 8.6689115e-39
1.1519681 0.37219569 2.1308446 9.9618084e-39
1.1642207 0.37335157 2.1374621 1.1620604e-38
1.1709121 0.37272021 2.1338475 9.5908538e-39
-1.3099556 0.37754965 2.1124136 5.8108498e-39
-1.2981225 0.37660393 2.1071224 5.9026811e-39
-1.2920879 0.37733909 2.1112356 8.5759956e-39
-1.2838775 0.37744433 2.1118245 9.2220783e-39
-1.2717592 0.37639442 2.1059501 8.9465676e-39
-1.2579633 0.37483045 2.0971997 9.4972261e-39
-1.2494518 0.37483045 2.0971997 1.0512813e-38
-1.2405965 0.37472665 2.0966189 9.8706875e-39
-1.2303838 0.37420851 2.0937197 7.0140635e-39
-1.2178447 0.37297076 2.0867946 5.7215212e-39
-1.2137245 0.37431201 2.0942991 6.1821435e-39
-1.2065598 0.37472665 2.0966189 7.6569148e-39
-1.1960633 0.37410504 2.0931408 8.4863167e-39
-1.1902007 0.37493432 2.0977807 6.5502057e-39
-1.1784215 0.3738983 2.0919843 6.5509274e-39
-1.1783972 0.37660393 2.1071224 7.5643633e-39
-1.1688694 0.37628976 2.1053646 8.1164622e-39
-1.1648598 0.37776047 2.1135931 8.2093739e-39
-1.152421 0.37649915 2.1065361 6.9193512e-39
-1.1416479 0.37576726 2.1024413 4.8896096e-39
-1.1384898 0.37754965 2.1124136 4.3357099e-39
-1.1321278 0.37828851 2.1165476 6.5505645e-39
-1.1235377 0.37828851 2.1165476 6.9200728e-39
-1.1152594 0.37839428 2.1171396 5.8133666e-39
-1.1048132 0.37776047 2.1135931 5.4449372e-39
-1.097154 0.37807712 2.1153648 6.0899436e-39
-1.0852333 0.37691864 2.1088831 7.9309682e-39
-1.0769744 0.37702367 2.1094708 1.3917932e-38
-1.0672235 0.37660393 2.1071224 1.5302319e-38
-1.0589665 0.37670878 2.1077089 1.2634405e-38
-1.0559981 0.378712 2.118917 1.3095748e-38
-1.0438925 0.37744433 2.1118245 1.4017352e-38
-1.0373471 0.37818277 2.1159561 1.0059047e-38
-1.0258921 0.37712875 2.1100588 9.3175152e-39
-1.019317 0.37786594 2.1141834 9.7756164e-39
-1.009046 0.37723389 2.110647 1.0239116e-38
-1.0021561 0.37786594 2.1141834 8.9490886e-39
-0.99329829 0.37776047 2.1135931 1.0420609e-38
-0.98692441 0.37860602 2.1183243 1.1984344e-38
-0.97641474 0.37786594 2.1141834 1.0049322e-38
-0.97000128 0.378712 2.118917 1.032842e-38
-0.95898598 0.37776047 2.1135931 9.3171368e-39
-0.95173645 0.37828851 2.1165476 7.10732e-39
-0.94077927 0.37733909 2.1112356 7.0158432e-39
-0.93507916 0.37850013 2.1177316 5.2630472e-39
-0.92856216 0.37934902 2.1224813 5.0793776e-39
-0.92149806 0.37998819 2.1260574 5.0793734e-39
-0.91647249 0.381488 2.134449 5.907695e-39
-0.90678716 0.38105828 2.1320448 5.0772238e-39
-0.89661926 0.3804155 2.1284482 4.9853869e-39
-0.89073545 0.38159558 2.135051 5.0772112e-39
-0.8820703 0.38159558 2.135051 6.2732307e-39
-0.87242103 0.38116562 2.1326454 6.7360109e-39
-0.86352241 0.38105828 2.1320448 5.3556002e-39
-0.85199028 0.3797749 2.1248641 5.0793636e-39
-0.84384012 0.37998819 2.1260574 5.1672474e-39
-0.83170807 0.37839428 2.1171396 5.9966508e-39
-0.82449895 0.37903023 2.1206977 5.0761322e-39
-0.81202531 0.37723389 2.110647 5.6307409e-39
-0.80503017 0.3779715 2.114774 6.4594268e-39
-0.79356563 0.37660393 2.1071224 6.64526e-39
-0.78348744 0.37587166 2.1030252 5.631471e-39
-0.77067071 0.373795 2.0914063 5.6278865e-39
-0.7623933 0.3738983 2.0919843 5.3516471e-39
-0.75494599 0.37441561 2.0948784 5.9966522e-39
-0.74541259 0.3738983 2.0919843 7.0093608e-39
-0.73835033 0.37462291 2.0960383 6.5494686e-39
-0.73105788 0.37524626 2.0995259 3.323709e-39
-0.72213638 0.37503824 2.0983622 3.322623e-39
-0.71381801 0.37514222 2.0989439 3.6914069e-39
-0.7060824 0.3755587 2.1012743 3.9687127e-39
-0.69930112 0.37649915 2.1065361 4.6148023e-39
-0.69209969 0.37723389 2.110647 4.3400245e-39
-0.6844877 0.37776047 2.1135931 5.169788e-39
-0.67742258 0.37860602 2.1183243 5.812998e-39
-0.67051375 0.37956184 2.123672 5.9937907e-39
-0.66170919 0.37945539 2.1230764 1.0785805e-38
-0.65364248 0.3797749 2.1248641 1.1343311e-38
-0.64519978 0.3798815 2.1254606 5.8140742e-39
-0.63890529 0.38127303 2.1332462 7.4750291e-39
-0.6290068 0.38052249 2.1290469 1.1347257e-38
-0.62001729 0.3803086 2.1278501 1.4474368e-38
-0.61000979 0.37945539 2.1230764 1.0974178e-38
-0.60257608 0.38020173 2.1272523 1.0146568e-38
-0.59327579 0.3797749 2.1248641 1.3003175e-38
-0.58236372 0.37828851 2.1165476 1.2266691e-38
-0.57361329 0.37818277 2.1159561 1.0879796e-38
-0.56392235 0.37744433 2.1118245 1.0417027e-38
-0.55442357 0.37681368 2.1082959 1.1982558e-38
-0.54678059 0.37744433 2.1118245 1.6318989e-38
-0.53626508 0.3760806 2.1041942 1.5125117e-38
-0.52919596 0.37712875 2.1100588 1.4387197e-38
-0.51817709 0.37535033 2.1001084 1.3095735e-38
-0.51107144 0.37639442 2.1059501 1.3092128e-38
-0.5009914 0.37524626 2.0995259 1.2726227e-38
-0.49438986 0.37670878 2.1077089 1.4665948e-38
-0.48692015 0.37754965 2.1124136 9.5044245e-39
-0.47569233 0.37545449 2.1006911 6.8271457e-39
-0.47161582 0.37903023 2.1206977 6.6398958e-39
-0.46236134 0.37850013 2.1177316 7.3795964e-39
-0.45338601 0.37818277 2.1159561 8.1175062e-39
-0.44591999 0.37913644 2.1212919 1.3553823e-38
-0.43718818 0.37903023 2.1206977 1.548958e-38
-0.43002674 0.3803086 2.1278501 1.7886291e-38
-0.42162782 0.38052249 2.1290469 1.8808647e-38
-0.41298702 0.38052249 2.1290469 1.3006433e-38
-0.40377849 0.37998819 2.1260574 1.4109167e-38
-0.39581674 0.38062951 2.1296458 1.7609744e-38
-0.3879374 0.3813805 2.1338475 2.1018101e-38
-0.37746853 0.37956184 2.123672 1.4845297e-38
-0.36967912 0.3804155 2.1284482 9.0351703e-39
-0.3613455 0.38073662 2.130245 1.2263105e-38
-0.35250148 0.38052249 2.1290469 1.4382898e-38
-0.34289643 0.37945539 2.1230764 1.6505195e-38
-0.33390531 0.37903023 2.1206977 1.4389001e-38
-0.32502529 0.378712 2.118917 1.3009292e-38
-0.31563056 0.37776047 2.1135931 1.3927301e-38
-0.30791208 0.37881801 2.1195104 1.8066756e-38
-0.29855776 0.37786594 2.1141834 2.2311705e-38
-0.29022044 0.37818277 2.1159561 2.0467801e-38
-0.28179029 0.37839428 2.1171396 1.6967265e-38
-0.27258798 0.37754965 2.1124136 1.4293233e-38
-0.26386747 0.37733909 2.1112356 1.511973e-38
-0.25494349 0.37681368 2.1082959 1.4752048e-38
-0.24693704 0.37765503 2.1130033 1.6685643e-38
-0.23909539 0.37881801 2.1195104 2.0280187e-38
-0.22984983 0.37776047 2.1135931 2.1016653e-38
-0.22170502 0.37850013 2.1177316 1.6867843e-38
-0.21322943 0.378712 2.118917 1.4564023e-38
-0.20491652 0.37924269 2.1218865 9.8696085e-39
-0.19603008 0.378712 2.118917 9.0391234e-39
-0.1879037 0.37966833 2.1242678 1.493641e-38
-0.17943335 0.37998819 2.1260574 1.668633e-38
-0.17085268 0.38009495 2.1266546 1.8895773e-38
-0.16185786 0.37924269 2.1218865 1.2818794e-38
-0.15380652 0.38062951 2.1296458 1.0332045e-38
-0.14423017 0.37818277 2.1159561 1.5765831e-38
-0.13636664 0.38020173 2.1272523 1.7424264e-38
-0.12755394 0.37966833 2.1242678 1.3001415e-38
-0.11859977 0.37860602 2.1183243 1.2818816e-38
-0.11021837 0.37934902 2.1224813 9.3196872e-39
-0.10174684 0.3798815 2.1254606 1.3557104e-38
-0.093016155 0.37945539 2.1230764 1.3745052e-38
-0.084281422 0.3789241 2.1201038 1.4018034e-38
-0.075719327 0.37913644 2.1212919 1.2269199e-38
-0.067091212 0.37903023 2.1206977 1.0150513e-38
-0.058353543 0.37818277 2.1159561 9.2285621e-39
-0.050059691 0.3804155 2.1284482 1.0518944e-38
-0.041339975 0.37966833 2.1242678 1.1073579e-38
-0.03281064 0.38073662 2.130245 1.3925887e-38
-0.024137817 0.3803086 2.1278501 1.7524044e-38
-0.015454104 0.37913644 2.1212919 1.9092802e-38
-0.0068582376 0.3798815 2.1254606 2.1114625e-38
0.0017650264 0.37924269 2.1218865 2.1575958e-38
0.010400075 0.38009495 2.1266546 2.2313153e-38
0.019020474 0.3798815 2.1254606 2.2771613e-38
0.027670015 0.38020173 2.1272523 2.0191943e-38
0.036181528 0.3789241 2.1201038 2.1483398e-38
0.044886582 0.3797749 2.1248641 1.9451502e-38
0.053271178 0.37807712 2.1153648 1.2356381e-38
0.061839163 0.3779715 2.114774 1.0236632e-38
0.070402361 0.37786594 2.1141834 1.530991e-38
0.079226196 0.37903023 2.1206977 1.4754574e-38
0.087587759 0.3779715 2.114774 1.7150921e-38
0.096251279 0.37828851 2.1165476 1.0883022e-38
0.10481204 0.37818277 2.1159561 8.3040765e-39
0.11276936 0.3760806 2.1041942 9.4129618e-39
0.12157961 0.37691864 2.1088831 1.0793738e-38
0.1300299 0.37660393 2.1071224 1.2725515e-38
0.13819709 0.3755587 2.1012743 1.7979223e-38
0.14737964 0.37723389 2.110647 2.2223107e-38
0.15585886 0.37702367 2.1094708 1.0787976e-38
0.16451187 0.37723389 2.110647 8.0264218e-39
0.17283706 0.37670878 2.1077089 1.2725509e-38
0.18144177 0.37681368 2.1082959 1.7148736e-38
0.18968141 0.37618515 2.1047792 1.8716056e-38
0.1984444 0.37660393 2.1071224 1.4569785e-38
0.20740026 0.37733909 2.1112356 1.7976727e-38
0.21602902 0.37744433 2.1118245 1.5859809e-38
0.22453727 0.37733909 2.1112356 8.6724975e-39
0.23356169 0.37807712 2.1153648 7.8434501e-39
0.2424179 0.37850013 2.1177316 9.9596532e-39
0.25136432 0.37903023 2.1206977 1.6594514e-38
0.26040888 0.37966833 2.1242678 1.5491764e-38
0.26872867 0.37924269 2.1218865 1.3743635e-38
0.2777296 0.3797749 2.1248641 1.5030776e-38
0.28619277 0.37956184 2.123672 1.1527708e-38
0.29464647 0.37934902 2.1224813 7.8413047e-39
0.30411318 0.3804155 2.1284482 1.0790119e-38
0.31178734 0.37924269 2.1218865 1.4846382e-38
0.32111907 0.38009495 2.1266546 1.3742217e-38
0.33030686 0.38073662 2.130245 1.7705209e-38
0.33838123 0.38009495 2.1266546 2.1113173e-38
0.34681746 0.3798815 2.1254606 2.0101533e-38
0.35504502 0.37945539 2.1230764 1.6595251e-38
0.3645817 0.3804155 2.1284482 2.0087511e-38
0.37280086 0.37998819 2.1260574 2.3046389e-38
0.38218078 0.38073662 2.130245 2.0372384e-38
0.39049679 0.3804155 2.1284482 1.162173e-38
0.39868683 0.37998819 2.1260574 6.272914e-39
0.40857759 0.38116562 2.1326454 1.1714977e-38
0.41746819 0.3813805 2.1338475 1.8904445e-38
0.42409644 0.37956184 2.123672 1.6872177e-38
0.43320146 0.37998819 2.1260574 1.4568357e-38
0.44232699 0.3804155 2.1284482 1.2636918e-38
0.45134601 0.38073662 2.130245 1.2909567e-38
0.46012112 0.38084379 2.1308446 1.0513554e-38
0.4678475 0.38009495 2.1266546 1.4756347e-38
0.47728297 0.38073662 2.130245 1.7797013e-38
0.48538235 0.3803086 2.1278501 1.8073611e-38
0.49401826 0.3803086 2.1278501 2.000359e-38
0.50180799 0.37966833 2.1242678 2.083297e-38
0.50928622 0.37881801 2.1195104 1.0602142e-38
0.51977998 0.38020173 2.1272523 6.4565808e-39
0.52722836 0.37934902 2.1224813 9.686662e-39
0.53434449 0.37828851 2.1165476 1.3922248e-38
0.54232812 0.37786594 2.1141834 1.6315039e-38
0.55075479 0.37776047 2.1135931 1.6409732e-38
0.56027132 0.37839428 2.1171396 1.8439137e-38
0.56886381 0.37839428 2.1171396 2.1291099e-38
0.57568538 0.37723389 2.110647 1.5395248e-38
0.58474058 0.37754965 2.1124136 1.3000691e-38
0.59447497 0.37828851 2.1165476 1.115712e-38
0.60188717 0.37754965 2.1124136 1.7055843e-38
0.61114252 0.3779715 2.114774 1.9545834e-38
0.62041861 0.37839428 2.1171396 1.3369074e-38
0.62953919 0.378712 2.118917 1.2911707e-38
0.6397503 0.37966833 2.1242678 1.1806434e-38
0.64637673 0.37850013 2.1177316 9.3157061e-39
0.65921271 0.38095099 2.1314445 1.0052565e-38
0.66226971 0.37776047 2.1135931 1.1531665e-38
0.67651373 0.38095099 2.1314445 1.2086645e-38
0.68420112 0.3804155 2.1284482 1.0608973e-38
0.69322926 0.38062951 2.1296458 1.0974171e-38
0.70286107 0.38116562 2.1326454 1.2262408e-38
0.71191752 0.3813805 2.1338475 8.4852349e-39
0.72037476 0.38127303 2.1332462 7.93315e-39
0.72882724 0.38116562 2.1326454 6.4598108e-39
0.73541105 0.38009495 2.1266546 6.7360375e-39
0.74404216 0.38009495 2.1266546 7.936366e-39
0.75309634 0.3803086 2.1278501 8.580655e-39
0.76474136 0.38181093 2.136256 4.9796654e-39
0.77232176 0.38127303 2.1332462 9.5015491e-39
0.78075963 0.38116562 2.1326454 1.4659806e-38
0.78874844 0.38084379 2.1308446 1.1522647e-38
0.79672384 0.38052249 2.1290469 1.3368743e-38
0.80627155 0.38095099 2.1314445 1.9176356e-38
0.81584084 0.3813805 2.1338475 1.9544427e-38
0.8256647 0.3819187 2.1368587 1.3920493e-38
0.83598888 0.38267475 2.141089 1.7423197e-38
0.84467852 0.38267475 2.141089 2.0096828e-38
0.85336816 0.38267475 2.141089 2.0096146e-38
0.86011189 0.38181093 2.136256 1.410701e-38
0.86829191 0.38159558 2.135051 1.3460565e-38
0.87769967 0.3819187 2.1368587 1.5394518e-38
0.88587207 0.38170323 2.1356533 1.797599e-38
0.89555019 0.38213441 2.1380658 1.6314658e-38
0.90346217 0.38181093 2.136256 1.0417735e-38
0.91238964 0.3819187 2.1368587 1.1066715e-38
0.91976416 0.3813805 2.1338475 1.4015902e-38
0.92581499 0.3803086 2.1278501 1.3457685e-38
0.93235457 0.37945539 2.1230764 1.3367287e-38
0.93729138 0.3779715 2.114774 1.3827554e-38
0.94719714 0.37850013 2.1177316 1.7794474e-38
0.95419055 0.37786594 2.1141834 1.8993375e-38
0.96277106 0.37786594 2.1141834 2.3045305e-38
0.9710803 0.37776047 2.1135931 1.6039868e-38
0.97911173 0.37754965 2.1124136 1.9916414e-38
0.98438907 0.37628976 2.1053646 1.9266713e-38
0.99210608 0.37597609 2.1036096 1.1525519e-38
0.9989782 0.37535033 2.1001084 1.2264534e-38
1.0086206 0.37576726 2.1024413 1.5767972e-38
1.0163068 0.37545449 2.1006911 1.4382504e-38
1.0265415 0.3760806 2.1041942 1.631933e-38
1.0347939 0.37597609 2.1036096 1.9636587e-38
1.041306 0.37524626 2.0995259 1.6958964e-38
1.0507011 0.3755587 2.1012743 1.3461288e-38
1.0574683 0.37493432 2.0977807 1.4661632e-38
1.0648021 0.37451923 2.0954583 1.345697e-38
1.0730095 0.37441561 2.0948784 1.0230849e-38
1.0809134 0.37420851 2.0937197 9.7752689e-39
1.0921291 0.37514222 2.0989439 8.2972494e-39
1.0994285 0.37472665 2.0966189 6.0852661e-39
1.111323 0.37587166 2.1030252 6.5487694e-39
1.1158289 0.37451923 2.0954583 7.4718145e-39
1.127141 0.37545449 2.1006911 8.1164678e-39
1.1394607 0.37670878 2.1077089 9.2220881e-39
1.1515414 0.37786594 2.1141834 9.3135621e-39
1.1614192 0.37828851 2.1165476 8.7611114e-39
-1.3008814 0.38344821 2.0977807 7.6554869e-39
-1.2895091 0.38260013 2.0931408 8.6685556e-39
-1.2831424 0.38323584 2.0966189 1.0511023e-38
-1.2742804 0.38312975 2.0960383 1.1340054e-38
-1.2629763 0.38228303 2.0914063 1.1247861e-38
-1.2506878 0.38112491 2.0850704 1.1895398e-38
-1.2418835 0.38101998 2.0844963 1.1712081e-38
-1.2344432 0.38133496 2.0862195 1.1070307e-38
-1.2242893 0.38081029 2.0833492 8.3051583e-39
-1.2131634 0.3799738 2.0787728 7.7498251e-39
-1.2073787 0.38081029 2.0833492 1.0052201e-38
-1.2005752 0.38133496 2.0862195 1.0788335e-38
-1.1891592 0.3803916 2.0810585 9.8670974e-39
-1.1813625 0.38060084 2.0822031 9.222807e-39
-1.1709796 0.3799738 2.0787728 8.8525839e-39
-1.169608 0.38228303 2.0914063 1.0418115e-38
-1.1601585 0.3819665 2.0896745 1.1893612e-38
-1.1551849 0.38312975 2.0960383 8.6671179e-39
-1.1454096 0.38270593 2.0937197 7.8420361e-39
-1.1359696 0.38238868 2.0919843 8.0267974e-39
-1.131544 0.38376722 2.0995259 8.7621848e-39
-1.12552 0.38462052 2.1041942 1.4384315e-38
-1.1166698 0.38451365 2.1036096 1.3095751e-38
-1.1106008 0.38537025 2.1082959 7.8434767e-39
-1.1020442 0.38537025 2.1082959 5.5378489e-39
-1.0937923 0.3854776 2.1088831 5.9995375e-39
-1.0819182 0.38430008 2.1024413 8.2089928e-39
-1.0745791 0.38472745 2.1047792 1.2258773e-38
-1.0627867 0.38355449 2.0983622 1.7327382e-38
-1.0545627 0.38366082 2.0989439 1.7426429e-38
-1.0492439 0.38483444 2.1053646 1.6315765e-38
-1.0372379 0.38355449 2.0983622 1.3548802e-38
-1.0307214 0.38430008 2.1024413 1.051174e-38
-1.0207713 0.38376722 2.0995259 1.0235874e-38
-1.0139374 0.38440683 2.1030252 1.0973092e-38
-1.0023395 0.38323584 2.0966189 9.9614552e-39
-0.99576056 0.38398018 2.1006911 9.130247e-39
-0.98641378 0.38366082 2.0989439 1.1618091e-38
-0.98006886 0.38451365 2.1036096 1.1528419e-38
-0.97261226 0.38494149 2.1059501 9.2260412e-39
-0.96433347 0.3850486 2.1065361 8.3008423e-39
-0.95445621 0.38451365 2.1036096 6.9193302e-39
-0.94697112 0.38494149 2.1059501 7.0151117e-39
-0.93660039 0.38419339 2.1018574 7.0165536e-39
-0.92806995 0.38419339 2.1018574 5.2641192e-39
-0.9185195 0.38376722 2.0995259 4.6183939e-39
-0.91278291 0.38494149 2.1059501 4.0648614e-39
-0.90574753 0.38558501 2.1094708 5.5389194e-39
-0.89919055 0.38644642 2.1141834 4.9857513e-39
-0.88689506 0.38483444 2.1053646 4.9846695e-39
-0.8805542 0.3858 2.110647 5.4467196e-39
-0.87393719 0.38666236 2.1153648 5.8147721e-39
-0.86318135 0.38569248 2.1100588 5.5381866e-39
-0.8546176 0.38569248 2.1100588 6.0899198e-39
-0.84346801 0.38451365 2.1036096 8.5777585e-39
-0.83655751 0.38526297 2.1077089 7.0118775e-39
-0.82478869 0.38376722 2.0995259 4.8917452e-39
-0.81672066 0.38398018 2.1006911 3.8783149e-39
-0.80529022 0.38260013 2.0931408 5.4459979e-39
-0.7990042 0.38366082 2.0989439 7.3835453e-39
-0.78634346 0.38165048 2.0879457 7.4753794e-39
-0.7763707 0.38091511 2.0839226 5.2619668e-39
-0.76245642 0.37820843 2.0691147 5.8144301e-39
-0.75426501 0.37831181 2.0696805 6.3683116e-39
-0.74647737 0.37862232 2.0713792 5.6278781e-39
-0.73766696 0.37841526 2.0702462 4.9821499e-39
-0.73066342 0.379141 2.0742166 4.8931885e-39
-0.72303754 0.37955695 2.0764923 2.7701807e-39
-0.71500224 0.37976527 2.077632 3.5066541e-39
-0.70695812 0.3799738 2.0787728 3.6903307e-39
-0.69928938 0.3803916 2.0810585 4.3367791e-39
-0.69255668 0.38133496 2.0862195 4.9853869e-39
-0.68597996 0.38238868 2.0919843 4.7080896e-39
-0.68068707 0.38419339 2.1018574 4.523341e-39
-0.67402792 0.38526297 2.1077089 4.5233354e-39
-0.66714531 0.38623071 2.1130033 4.7963251e-39
-0.65801865 0.38590759 2.1112356 6.1763939e-39
-0.64981258 0.38612294 2.1124136 7.4750473e-39
-0.64195573 0.38655436 2.114774 7.4725179e-39
-0.63657355 0.38850775 2.1254606 9.9617943e-39
-0.62689131 0.38785443 2.1218865 1.2077978e-38
-0.61655158 0.38677043 2.1159561 1.1530544e-38
-0.60762429 0.38655436 2.114774 1.1904019e-38
-0.60038304 0.38742012 2.1195104 1.3650727e-38
-0.59029365 0.38644642 2.1141834 1.4021299e-38
-0.57896471 0.38462052 2.1041942 1.245289e-38
-0.56979132 0.38419339 2.1018574 9.8695959e-39
-0.56032753 0.38355449 2.0983622 8.7596877e-39
-0.55059046 0.38270593 2.0937197 1.2448212e-38
-0.54299402 0.383342 2.0971997 1.6965439e-38
-0.5331533 0.38238868 2.0919843 1.6599178e-38
-0.52495301 0.38260013 2.0931408 1.4293209e-38
-0.51531816 0.38175577 2.0885215 1.3279028e-38
-0.50684184 0.38175577 2.0885215 1.0697182e-38
-0.49754202 0.38112491 2.0850704 1.0423472e-38
-0.49070141 0.38238868 2.0919843 1.1714229e-38
-0.48381528 0.38366082 2.0989439 1.1160367e-38
-0.47372067 0.38238868 2.0919843 7.0126328e-39
-0.46846646 0.3850486 2.1065361 5.9044776e-39
-0.45940572 0.38462052 2.1041942 6.7324292e-39
-0.44999033 0.38387367 2.1001084 1.0786173e-38
-0.44232586 0.38462052 2.1041942 1.2633314e-38
-0.43402719 0.38483444 2.1053646 1.2544359e-38
-0.42690715 0.38612294 2.1124136 1.4661267e-38
-0.41973922 0.38742012 2.1195104 1.7239508e-38
-0.41044769 0.38677043 2.1159561 1.3463073e-38
-0.40118727 0.38612294 2.1124136 1.5307706e-38
-0.39294291 0.38644642 2.1141834 1.2820247e-38
-0.38522303 0.38731167 2.118917 1.2357828e-38
-0.37504885 0.38569248 2.1100588 1.2632254e-38
-0.3679207 0.38720331 2.1183243 1.1988662e-38
-0.35952461 0.38742012 2.1195104 1.2726238e-38
-0.35082433 0.38731167 2.118917 1.5211568e-38
-0.34155548 0.38655436 2.114774 1.8717871e-38
-0.33232284 0.3858 2.110647 1.1990478e-38
-0.32321605 0.38515574 2.1071224 1.4116726e-38
-0.3140524 0.38440683 2.1030252 1.5954159e-38
-0.30653903 0.38569248 2.1100588 1.9080503e-38
-0.29722974 0.38472745 2.1047792 2.3140377e-38
-0.28884804 0.38494149 2.1059501 2.0376299e-38
-0.28045702 0.38515574 2.1071224 2.1019169e-38
-0.27122581 0.38419339 2.1018574 2.1573783e-38
-0.26269537 0.38419339 2.1018574 1.7608645e-38
-0.25395343 0.38387367 2.1001084 1.2634414e-38
-0.24563448 0.38419339 2.1018574 1.3740745e-38
-0.23822838 0.38601524 2.1118245 1.4382151e-38
-0.22895497 0.38483444 2.1053646 1.6871081e-38
-0.22077867 0.3854776 2.1088831 1.1985089e-38
-0.21227884 0.38558501 2.1094708 8.4816322e-39
-0.20388794 0.38590759 2.1112356 6.8278632e-39
-0.19526498 0.3858 2.110647 1.023659e-38
-0.18711618 0.38666236 2.1153648 1.4381099e-38
-0.17878069 0.38720331 2.1183243 1.6041689e-38
-0.17018341 0.38720331 2.1183243 2.0001038e-38
-0.16104542 0.38590759 2.1112356 1.4204601e-38
-0.15320319 0.38774577 2.1212919 9.0398535e-39
-0.14342844 0.38462052 2.1041942 8.3004765e-39
-0.13560461 0.38666236 2.1153648 1.0238744e-38
-0.12687755 0.38623071 2.1130033 1.3188702e-38
-0.11790697 0.38494149 2.1059501 7.7480483e-39
-0.10966497 0.38601524 2.1118245 8.4870314e-39
-0.10112228 0.38612294 2.1124136 1.8164677e-38
-0.092445821 0.38569248 2.1100588 1.9825265e-38
-0.083765365 0.38515574 2.1071224 1.4019487e-38
-0.075339362 0.3858 2.110647 1.0147632e-38
-0.06679187 0.38590759 2.1112356 1.153022e-38
-0.058029175 0.38462052 2.1041942 1.1719315e-38
-0.049863435 0.3875286 2.1201038 1.3286979e-38
-0.041155215 0.38655436 2.114774 1.2365046e-38
-0.032636162 0.38731167 2.118917 1.4947263e-38
-0.024043212 0.38742012 2.1195104 2.0198784e-38
-0.015380842 0.38590759 2.1112356 2.0658316e-38
-0.0068294778 0.38687855 2.1165476 2.1211837e-38
0.0017571468 0.38612294 2.1124136 2.2773765e-38
0.010356439 0.387095 2.1177316 2.019124e-38
0.018946009 0.38698676 2.1171396 1.8345547e-38
0.027546177 0.387095 2.1177316 1.8072174e-38
0.036090568 0.38655436 2.114774 1.917638e-38
0.044710901 0.38687855 2.1165476 1.3369843e-38
0.053063609 0.38515574 2.1071224 1.1252551e-38
0.061684091 0.38558501 2.1094708 1.0699752e-38
0.070128195 0.38494149 2.1059501 1.8161852e-38
0.078894705 0.38601524 2.1118245 1.2634784e-38
0.087246567 0.3850486 2.1065361 1.5948771e-38
0.095956199 0.38569248 2.1100588 1.2730172e-38
0.1044908 0.38558501 2.1094708 1.1621683e-38
0.1124568 0.38355449 2.0983622 1.3005347e-38
0.12117457 0.38419339 2.1018574 1.3922252e-38
0.12963304 0.38398018 2.1006911 2.1571259e-38
0.13777645 0.3829177 2.0948784 2.3417691e-38
0.14692906 0.38462052 2.1041942 2.203836e-38
0.15546899 0.38462052 2.1041942 1.1896145e-38
0.16400892 0.38462052 2.1041942 1.2264935e-38
0.17250089 0.38451365 2.1036096 1.0330955e-38
0.18088767 0.38419339 2.1018574 1.6867851e-38
0.18910311 0.38355449 2.0983622 1.3643143e-38
0.19789362 0.38408676 2.1012743 9.404327e-39
0.20665111 0.38451365 2.1036096 1.4104506e-38
0.2153682 0.38483444 2.1053646 1.3368725e-38
0.22360197 0.38430008 2.1024413 8.7679343e-39
0.23245755 0.38483444 2.1053646 9.2271202e-39
0.24113633 0.3850486 2.1065361 7.6601728e-39
0.24961631 0.38494149 2.1059501 1.9637319e-38
0.25917265 0.38644642 2.1141834 1.6229336e-38
0.26723075 0.38569248 2.1100588 1.8446696e-38
0.27625644 0.38633853 2.1135931 1.6041342e-38
0.28451681 0.38590759 2.1112356 1.1893626e-38
0.29284033 0.38558501 2.1094708 1.1066729e-38
0.302075 0.38644642 2.1141834 1.5307724e-38
0.30944568 0.38494149 2.1059501 1.770482e-38
0.31923592 0.38644642 2.1141834 1.5127285e-38
0.32836658 0.387095 2.1177316 1.9549445e-38
0.33630297 0.38633853 2.1135931 1.9546227e-38
0.34478477 0.38623071 2.1130033 1.9084151e-38
0.35286802 0.38569248 2.1100588 1.7058022e-38
0.36264461 0.38698676 2.1171396 1.7242037e-38
0.37102959 0.38677043 2.1159561 1.8713555e-38
0.38014847 0.38731167 2.118917 1.5021048e-38
0.38831344 0.38687855 2.1165476 1.6590207e-38
0.3966817 0.38666236 2.1153648 1.0880885e-38
0.40685847 0.38818082 2.123672 1.2081948e-38
0.41559401 0.38828972 2.1242678 2.05625e-38
0.42231947 0.38655436 2.114774 1.6508776e-38
0.43126374 0.38687855 2.1165476 1.4844215e-38
0.44034624 0.38731167 2.118917 1.2725885e-38
0.44882029 0.38720331 2.1183243 1.420353e-38
0.45767367 0.38742012 2.1195104 1.023983e-38
0.46471459 0.38612294 2.1124136 1.8718946e-38
0.47474495 0.38731167 2.118917 2.0187624e-38
0.48186114 0.38612294 2.1124136 1.7332799e-38
0.49084529 0.38644642 2.1141834 1.6963654e-38
0.49886853 0.38601524 2.1118245 1.5950919e-38
0.50532508 0.38440683 2.1030252 1.0786163e-38
0.5158664 0.38590759 2.1112356 9.6812796e-39
0.52341318 0.38515574 2.1071224 1.3741482e-38
0.53034139 0.38398018 2.1006911 1.6597011e-38
0.53886706 0.38398018 2.1006911 1.8803608e-38
0.54693753 0.38366082 2.0989439 2.1940744e-38
0.55669081 0.38451365 2.1036096 2.2031879e-38
0.56522834 0.38451365 2.1036096 1.8528089e-38
0.57344723 0.38430008 2.1024413 1.346234e-38
0.58214176 0.38440683 2.1030252 1.2449657e-38
0.5906769 0.38440683 2.1030252 1.3462734e-38
0.59954518 0.38462052 2.1041942 1.8439482e-38
0.60774726 0.38440683 2.1030252 1.7791946e-38
0.61679643 0.38472745 2.1047792 1.2168741e-38
0.62725699 0.38590759 2.1112356 9.2227972e-39
0.63778186 0.387095 2.1177316 8.8558125e-39
0.64349675 0.38537025 2.1082959 9.1309687e-39
0.65570527 0.3875286 2.1201038 9.2195644e-39
0.65932465 0.38462052 2.1041942 1.0606092e-38
0.67178553 0.38687855 2.1165476 1.1619146e-38
0.67980546 0.38655436 2.114774 1.0697201e-38
0.68915832 0.38698676 2.1171396 1.060969e-38
0.69892347 0.38763714 2.1206977 1.530953e-38
0.70911944 0.38850775 2.1254606 1.1343309e-38
0.71774566 0.38850775 2.1254606 1.0791205e-38
0.72576064 0.38818082 2.123672 9.6830565e-39
0.73171139 0.38677043 2.1159561 9.4990394e-39
0.74071312 0.38698676 2.1171396 1.1802471e-38
0.74972486 0.38720331 2.1183243 1.3093918e-38
0.76130432 0.38872603 2.1266546 8.5767341e-39
0.76971918 0.38861686 2.1260574 1.4018778e-38
0.77812934 0.38850775 2.1254606 1.5393408e-38
0.78609347 0.38818082 2.123672 1.4931722e-38
0.79426688 0.38796318 2.1224813 1.3830446e-38
0.8037824 0.38839871 2.1248641 1.5030794e-38
0.81331927 0.38883525 2.1272523 1.3738948e-38
0.82334083 0.38949186 2.1308446 1.1801762e-38
0.83410174 0.390481 2.136256 1.180249e-38
0.84324765 0.39070147 2.1374621 1.3918307e-38
0.85168219 0.3905912 2.1368587 1.4656241e-38
0.85914218 0.39004076 2.1338475 1.1984373e-38
0.86755794 0.38993084 2.1332462 1.1249317e-38
0.87572229 0.38971123 2.1320448 1.4104481e-38
0.88437527 0.38971123 2.1320448 1.5853311e-38
0.8930282 0.38971123 2.1320448 1.3183965e-38
0.89965433 0.38883525 2.1272523 1.0052196e-38
0.90905416 0.38916329 2.1290469 8.0253372e-39
0.91666383 0.38872603 2.1266546 1.134151e-38
0.92218637 0.38742012 2.1195104 1.2355295e-38
0.9271546 0.38590759 2.1112356 1.4110961e-38
0.93312103 0.38483444 2.1053646 1.4659465e-38
0.94166565 0.38483444 2.1053646 1.5395232e-38
0.9481011 0.38398018 2.1006911 1.5032582e-38
0.95795584 0.38451365 2.1036096 2.0646802e-38
0.96488482 0.38387367 2.1001084 1.5022133e-38
0.97394848 0.38408676 2.1012743 1.4108087e-38
0.98029995 0.38323584 2.0966189 1.815821e-38
0.98826176 0.38302371 2.0954583 1.6406149e-38
0.99456406 0.38217747 2.0908287 1.7417797e-38
1.0038815 0.38249436 2.0925624 1.2349894e-38
1.0126541 0.38260013 2.0931408 9.0402038e-39
1.0219967 0.3829177 2.0948784 1.539882e-38
1.0299289 0.38270593 2.0937197 2.2119042e-38
1.036134 0.38186109 2.089098 1.9169144e-38
1.044901 0.3819665 2.0896745 1.5674717e-38
1.0525105 0.38165048 2.0879457 2.1945808e-38
1.0601074 0.38133496 2.0862195 1.9085942e-38
1.0676917 0.38101998 2.0844963 1.3091803e-38
1.0749677 0.38060084 2.0822031 1.1616316e-38
1.0855083 0.38133496 2.0862195 1.2165871e-38
1.0933727 0.38112491 2.0850704 7.9259417e-39
1.1024423 0.38133496 2.0862195 7.1001453e-39
1.1087705 0.38060084 2.0822031 7.1026704e-39
1.1193762 0.38133496 2.0862195 7.5658066e-39
1.1325243 0.3829177 2.0948784 9.2242391e-39
1.1441925 0.38398018 2.1006911 8.5774334e-39
1.1543195 0.38451365 2.1036096 9.315374e-39
-1.2933556 0.38969457 2.085645 9.3167991e-39
-1.2817131 0.38873076 2.0804865 8.7647001e-39
-1.2750213 0.38926563 2.0833492 8.8543734e-39
-1.2655213 0.38894454 2.0816307 1.1891783e-38
-1.2546581 0.38819739 2.077632 1.7420291e-38
-1.2434961 0.38734701 2.0730808 1.6043482e-38
-1.2357591 0.38755926 2.0742166 1.2174495e-38
-1.2286874 0.38798445 2.0764923 1.1714953e-38
-1.218255 0.38734701 2.0730808 9.2260356e-39
-1.2081872 0.3868174 2.0702462 8.5785082e-39
-1.2027451 0.38777173 2.0753539 8.2093655e-39
-1.1959615 0.38830394 2.0782022 7.6558344e-39
-1.1858994 0.38777173 2.0753539 7.2870575e-39
-1.1758648 0.38724098 2.0725131 8.3905296e-39
-1.1668147 0.38702908 2.0713792 1.2444982e-38
-1.1641411 0.38894454 2.0816307 1.539597e-38
-1.1556927 0.38894454 2.0816307 1.3736438e-38
-1.1504074 0.39001688 2.0873699 1.2444971e-38
-1.1419357 0.39001688 2.0873699 1.2356745e-38
-1.1331517 0.38990939 2.0867946 1.2633339e-38
-1.1281028 0.39109519 2.0931408 1.3736423e-38
-1.1214679 0.39174503 2.0966189 1.8436245e-38
-1.1120349 0.39141983 2.0948784 1.6595959e-38
-1.105981 0.39228821 2.0995259 1.1251848e-38
-1.0995946 0.39305121 2.1036096 7.1033823e-39
-1.0910571 0.39305121 2.1036096 6.5509232e-39
-1.0789222 0.39174503 2.0966189 6.8275157e-39
-1.0707095 0.39185354 2.0971997 1.0970194e-38
-1.0586787 0.39055529 2.0902514 1.7786922e-38
-1.0493263 0.39023209 2.0885215 1.6040983e-38
-1.0425756 0.39087903 2.0919843 1.1339729e-38
-1.03152 0.38990939 2.0867946 9.0344627e-39
-1.0250283 0.39066315 2.0908287 1.1796732e-38
-1.0157012 0.39033976 2.089098 1.3272218e-38
-1.0088929 0.3909871 2.0925624 1.0969132e-38
-0.99681842 0.38958725 2.0850704 9.4961653e-39
-0.98999202 0.39023209 2.0885215 8.9411684e-39
-0.98151571 0.39023209 2.0885215 9.5872623e-39
-0.974922 0.3909871 2.0925624 1.0421703e-38
-0.96857095 0.39185354 2.0971997 7.9367275e-39
-0.96139097 0.39239702 2.1001084 6.2750411e-39
-0.95154786 0.39185354 2.0971997 6.2750369e-39
-0.94486851 0.39261484 2.1012743 6.0005996e-39
-0.93297416 0.39120334 2.0937197 5.2644667e-39
-0.92498833 0.39141983 2.0948784 4.6173037e-39
-0.91219532 0.38958725 2.0850704 4.2474534e-39
-0.90647918 0.39077106 2.0914063 3.6946453e-39
-0.89799112 0.39077106 2.0914063 4.3400231e-39
-0.88974887 0.39087903 2.0919843 4.5247759e-39
-0.87497246 0.38809088 2.0770619 4.5229753e-39
-0.86630499 0.38798445 2.0764923 4.6165988e-39
-0.85929155 0.38862398 2.079915 5.4470615e-39
-0.85014951 0.38830394 2.0782022 8.0235001e-39
-0.84194618 0.38841057 2.0787728 8.2064536e-39
-0.83259499 0.38798445 2.0764923 6.4565429e-39
-0.82484621 0.38830394 2.0782022 6.8253226e-39
-0.81618774 0.38819739 2.077632 6.8282051e-39
-0.80709112 0.38787806 2.075923 4.0648614e-39
-0.79648203 0.3868174 2.0702462 5.6318297e-39
-0.79089135 0.38819739 2.077632 7.202747e-39
-0.77967769 0.3868174 2.0702462 6.1860769e-39
-0.7700122 0.3861838 2.0668552 5.3538023e-39
-0.75728232 0.38398242 2.0550735 6.2746824e-39
-0.74853539 0.38377407 2.0539584 5.8119162e-39
-0.73959738 0.38346198 2.0522881 4.7963237e-39
-0.73087186 0.3832542 2.0511761 5.3502136e-39
-0.72431326 0.38419101 2.0561898 5.0761462e-39
-0.71655202 0.38450429 2.0578666 3.1407639e-39
-0.7091639 0.38502756 2.060667 3.9687113e-39
-0.70118231 0.38523728 2.0617895 4.4282545e-39
-0.69319206 0.3854472 2.0629129 4.7066462e-39
-0.68781835 0.387135 2.0719461 4.3389399e-39
-0.68220979 0.38873076 2.0804865 4.3382183e-39
-0.6767416 0.3904475 2.0896745 3.6928531e-39
-0.66973948 0.39131156 2.0942991 4.2463954e-39
-0.66289008 0.39228821 2.0995259 5.5346217e-39
-0.65346301 0.39174503 2.0966189 6.087787e-39
-0.64513248 0.39185354 2.0971997 1.0602486e-38
-0.63821203 0.39283291 2.1024413 1.245072e-38
-0.63143271 0.39392683 2.1082959 1.2082319e-38
-0.62304968 0.39403656 2.1088831 1.1622056e-38
-0.61210364 0.39250591 2.1006911 1.4296422e-38
-0.60307598 0.39217946 2.0989439 1.4666297e-38
-0.59587896 0.39305121 2.1036096 1.4756707e-38
-0.58458012 0.39120334 2.0937197 1.6690294e-38
-0.57465243 0.39023209 2.0885215 1.1898997e-38
-0.56539625 0.38969457 2.085645 1.0049677e-38
-0.55570692 0.38883764 2.0810585 9.8624353e-39
-0.54635978 0.38819739 2.077632 9.6826949e-39
-0.53837091 0.38851723 2.0793438 1.2448578e-38
-0.52964085 0.38830394 2.0782022 1.2451083e-38
-0.52134955 0.38841057 2.0787728 1.1617375e-38
-0.5126313 0.38819739 2.077632 1.1247853e-38
-0.50433755 0.38830394 2.0782022 9.5901252e-39
-0.49495208 0.38755926 2.0742166 9.3185745e-39
-0.48854151 0.38915855 2.0827761 1.1254691e-38
-0.48128015 0.39012444 2.0879457 1.6232222e-38
-0.4720251 0.38947996 2.0844963 9.5047903e-39
-0.46587396 0.39141983 2.0948784 9.4100639e-39
-0.45724532 0.39131156 2.0942991 9.8623988e-39
-0.44775465 0.3904475 2.0896745 1.3460184e-38
-0.43878922 0.39001688 2.0873699 1.1253608e-38
-0.43067381 0.39033976 2.089098 1.4664132e-38
-0.42324623 0.39131156 2.0942991 1.586411e-38
-0.41601235 0.39250591 2.1006911 1.1898623e-38
-0.40703487 0.39207074 2.0983622 1.1895403e-38
-0.39807731 0.39163655 2.0960383 1.3926241e-38
-0.39000237 0.39207074 2.0983622 1.3832595e-38
-0.38201553 0.39261484 2.1012743 1.3463436e-38
-0.37307325 0.39217946 2.0989439 1.7426792e-38
-0.365365 0.39305121 2.1036096 1.6041331e-38
-0.35712513 0.39337912 2.1053646 1.5117941e-38
-0.34945506 0.39436612 2.110647 1.6313264e-38
-0.34003577 0.39337912 2.1053646 1.5396346e-38
-0.33038858 0.39207074 2.0983622 1.1525925e-38
-0.32169399 0.39185354 2.0971997 1.4206056e-38
-0.31257635 0.39109519 2.0931408 1.401769e-38
-0.30526283 0.39261484 2.1012743 1.6036984e-38
-0.29583159 0.39141983 2.0948784 2.0005754e-38
-0.28756818 0.39174503 2.0966189 1.7148023e-38
-0.2791363 0.39185354 2.0971997 2.0831861e-38
-0.27002636 0.3909871 2.0925624 2.3417689e-38
-0.26153365 0.3909871 2.0925624 2.1940394e-38
-0.25290114 0.39077106 2.0914063 1.4937501e-38
-0.2445482 0.3909871 2.0925624 1.4201e-38
-0.23763181 0.39359802 2.1065361 1.1344366e-38
-0.22825675 0.39217946 2.0989439 1.0511731e-38
-0.22004315 0.39272383 2.1018574 1.1713506e-38
-0.21139534 0.39250591 2.1006911 1.1438355e-38
-0.20309503 0.39294201 2.1030252 7.5650611e-39
-0.19450583 0.39283291 2.1024413 9.0348088e-39
-0.18633524 0.39359802 2.1065361 1.6039178e-38
-0.17788479 0.39381716 2.1077089 1.8161824e-38
-0.16942494 0.39403656 2.1088831 2.0184313e-38
-0.16041912 0.39294201 2.1030252 1.6963983e-38
-0.15260458 0.39480639 2.1130033 9.5948167e-39
-0.14279345 0.39141983 2.0948784 6.8285737e-39
-0.13496354 0.39337912 2.1053646 1.1986152e-38
-0.12634858 0.39316043 2.1041942 1.2816298e-38
-0.11744959 0.39196211 2.0977807 6.0906765e-39
-0.10920803 0.39294201 2.1030252 8.3973539e-39
-0.10067285 0.39294201 2.1030252 1.8440197e-38
-0.09193337 0.39207074 2.0983622 1.8352317e-38
-0.083486535 0.39239702 2.1001084 1.208879e-38
-0.07496319 0.39239702 2.1001084 1.1810071e-38
-0.066439845 0.39239702 2.1001084 1.5030798e-38
-0.057724349 0.39109519 2.0931408 1.9920035e-38
-0.049571916 0.39381716 2.1077089 1.4943628e-38
-0.040949322 0.39316043 2.1041942 1.4300063e-38
-0.032400392 0.39305121 2.1036096 1.6422016e-38
-0.023896037 0.39359802 2.1065361 1.6053605e-38
-0.015287056 0.39207074 2.0983622 1.5036579e-38
-0.0067877304 0.39305121 2.1036096 2.1485915e-38
0.0017488515 0.39283291 2.1024413 1.8446727e-38
0.010298823 0.39348853 2.1059501 1.7338231e-38
0.018856367 0.39370757 2.1071224 1.9182844e-38
0.027408177 0.39370757 2.1071224 1.6598836e-38
0.035929989 0.39337912 2.1053646 1.5673647e-38
0.044561408 0.39414635 2.1094708 8.6707122e-39
0.052843001 0.39207074 2.0983622 1.088376e-38
0.061495613 0.39294201 2.1030252 1.5493916e-38
0.069875516 0.39207074 2.0983622 1.4846038e-38
0.078631505 0.39326975 2.1047792 1.5773027e-38
0.08698035 0.39239702 2.1001084 1.6965797e-38
0.095689505 0.39316043 2.1041942 1.327726e-38
0.10420047 0.39305121 2.1036096 1.2542569e-38
0.11223904 0.39131156 2.0942991 1.410845e-38
0.12087256 0.39174503 2.0966189 1.3553116e-38
0.12920284 0.39120334 2.0937197 1.9083422e-38
0.13739628 0.39033976 2.089098 2.3233656e-38
0.14644065 0.39185354 2.0971997 2.1755293e-38
0.15508106 0.39217946 2.0989439 1.6042415e-38
0.16350903 0.39196211 2.0977807 1.0236607e-38
0.17202292 0.39196211 2.0977807 9.7741899e-39
0.18028705 0.39141983 2.0948784 7.1927151e-39
0.18852833 0.39087903 2.0919843 9.7752465e-39
0.19729128 0.39141983 2.0948784 9.4071954e-39
0.20602143 0.39185354 2.0971997 9.1306002e-39
0.21477094 0.39228821 2.0995259 7.7487503e-39
0.22329192 0.39228821 2.0995259 1.4109889e-38
0.23174864 0.39217946 2.0989439 1.4754915e-38
0.24053399 0.39261484 2.1012743 1.6324044e-38
0.24851029 0.39174503 2.0966189 2.3141089e-38
0.25801983 0.39326975 2.1047792 1.4013364e-38
0.26633999 0.39294201 2.1030252 1.1339697e-38
0.27502796 0.39316043 2.1041942 9.7720165e-39
0.28333163 0.39283291 2.1024413 1.1065631e-38
0.29162151 0.39250591 2.1006911 1.5583232e-38
0.3005642 0.39305121 2.1036096 1.798068e-38
0.30807456 0.39174503 2.0966189 1.4665236e-38
0.31746289 0.39283291 2.1024413 1.4939274e-38
0.32672155 0.39370757 2.1071224 1.8439845e-38
0.33443564 0.39272383 2.1018574 1.9915727e-38
0.34315664 0.39294201 2.1030252 1.6133536e-38
0.35110664 0.39228821 2.0995259 1.0787622e-38
0.36042723 0.39316043 2.1041942 1.1158912e-38
