# .PCD v0.7 - Point Cloud Data file format
VERSION 0.7
FIELDS x y z rgb
SIZE 4 4 4 4
TYPE F F F F
COUNT 1 1 1 1
WIDTH 1043
HEIGHT 1
VIEWPOINT 0 0 0 1 0 0 0
POINTS 1043
DATA ascii
0.28351784 0.79021513 2.6658065 2.3048964e-39
0.29320145 0.78716624 2.6555212 1.3822184e-39
0.30334055 0.7855131 2.6499443 8.2940474e-40
0.31180355 0.77978146 2.6306083 7.3756924e-40
0.32047558 0.77493471 2.6142578 9.219591e-40
0.32971936 0.77173692 2.6034701 1.1056329e-39
0.33738515 0.76515889 2.5812788 8.2940474e-40
0.34271994 0.75384986 2.5431275 7.3792798e-40
0.35423118 0.75639063 2.5516989 1.013796e-39
0.36969602 0.76698941 2.5874541 1.2903857e-39
0.38667265 0.78005248 2.6315227 9.2160037e-40
0.39887783 0.78304642 2.6416228 9.2159897e-40
0.4191041 0.80121779 2.7029243 1.0134359e-39
0.41915002 0.78086674 2.6342695 1.5666096e-39
0.43059039 0.78222758 2.6388605 1.2900228e-39
0.44037932 0.78059512 2.6333532 1.013796e-39
0.45059666 0.77978146 2.6306083 1.1981873e-39
0.46207583 0.78113854 2.6351864 2.5818392e-39
0.47310013 0.78168267 2.6370223 5.0707624e-39
0.48380256 0.78168267 2.6370223 5.5321035e-39
0.49347368 0.78005248 2.6315227 6.1774673e-39
0.5029301 0.77815914 2.6251354 7.3760105e-39
0.51358432 0.77815914 2.6251354 8.3901639e-39
0.51706696 0.76751399 2.5892239 9.4039556e-39
0.53768921 0.78222758 2.6388605 1.0141522e-38
0.54706436 0.78032368 2.6324377 1.0971283e-38
0.5726825 0.80121779 2.7029243 1.1524096e-38
0.60728467 0.83365935 2.8123665 1.207763e-38
0.62520158 0.84242153 2.8419259 1.2538966e-38
0.6374535 0.84337127 2.84513 1.2723354e-38
0.66911674 0.8695122 2.9333169 1.2907029e-38
0.65930873 0.84178954 2.8397939 1.2631161e-38
0.67718428 0.84975803 2.8666759 1.2538964e-38
0.68777704 0.84847295 2.8623405 1.2354573e-38
0.69939393 0.84847295 2.8623405 1.1893957e-38
0.72109801 0.86051035 2.9029489 1.1985075e-38
0.74662119 0.87664491 2.9573791 1.1892516e-38
0.7780757 0.89912301 3.0332096 1.1524452e-38
0.79133719 0.90020496 3.0368595 1.1524452e-38
0.80463064 0.90128952 3.0405183 1.124751e-38
0.81566036 0.89984399 3.0356419 1.1155675e-38
0.8207407 0.89197576 3.0090981 1.0970927e-38
0.83627701 0.89553511 3.0211058 1.0786891e-38
0.83850032 0.88494122 2.9853671 1.0510665e-38
0.84330082 0.8773303 2.9596915 1.0326634e-38
0.85131913 0.87323385 2.9458718 1.0510662e-38
0.8549583 0.8648212 2.9174917 1.0510303e-38
0.85918391 0.85722345 2.8918605 1.0510663e-38
0.86464548 0.85104704 2.8710241 1.0418825e-38
0.87134117 0.84623343 2.8547854 1.0603219e-38
0.87533587 0.83895737 2.8302395 1.0695773e-38
0.87926245 0.83180541 2.8061123 9.9585672e-39
0.88605338 0.82751143 2.7916265 7.3749427e-39
0.88951147 0.82025254 2.7671385 7.4671314e-39
0.89355695 0.81370956 2.7450655 6.638807e-39
0.89753842 0.80727011 2.7233419 2.5822007e-39
0.90177917 0.80121779 2.7029243 1.4751371e-39
0.90180248 0.79160881 2.6705081 1.9361166e-39
0.90720081 0.78689027 2.6545901 2.028671e-39
0.9122172 0.78195506 2.6379411 2.0283109e-39
0.91844314 0.77815914 2.6251354 2.1205079e-39
0.92301643 0.7730661 2.607954 1.7517226e-39
0.92943871 0.7696197 2.5963275 1.5676928e-39
0.93516546 0.76568097 2.5830402 1.8442769e-39
0.937334 0.75894856 2.5603282 1.936474e-39
0.94199103 0.75435662 2.5448372 2.0283109e-39
0.92798883 0.73508382 2.47982 2.1201492e-39
0.92086065 0.72161126 2.43437 2.1205065e-39
0.93525147 0.72510856 2.4461682 2.0283095e-39
0.92867619 0.71244794 2.4034574 1.9357537e-39
0.93992263 0.71358061 2.4072785 1.7510023e-39
0.94788426 0.7122218 2.4026947 8.2940754e-40
0.95611846 0.71109349 2.3988881 4.6062362e-40
0.96524274 0.71064311 2.3973689 1.4751329e-39
0.97528136 0.71086824 2.3981283 2.9499056e-39
0.98563862 0.71131885 2.3996484 2.9495469e-39
0.99035525 0.70772976 2.3875403 2.6733187e-39
1.0054353 0.71154439 2.4004092 2.4889275e-39
1.016144 0.7122218 2.4026947 2.3963745e-39
1.0168595 0.70594871 2.3815322 2.212342e-39
1.0499753 0.72207558 2.4359365 2.0279507e-39
1.0500637 0.7154004 2.4134176 1.935395e-39
1.0629081 0.71745872 2.4203615 1.7513638e-39
1.100165 0.73580688 2.4822593 1.6591668e-39
1.1257412 0.74608076 2.5169184 1.5669698e-39
1.0895907 0.7156285 2.4141872 1.5666124e-39
1.1132332 0.72464031 2.4445887 1.5662537e-39
1.1419599 0.73677313 2.4855189 1.4744182e-39
1.1791453 0.75410312 2.543982 1.3822212e-39
1.2862874 0.81548363 2.7510505 1.3822226e-39
1.2974527 0.81548363 2.7510505 1.4744154e-39
1.3397754 0.8348999 2.8165517 1.1985474e-39
1.4805051 0.90711844 3.0601821 1.2903871e-39
1.5389568 0.93508792 3.1545379 1.2907444e-39
1.5834281 0.95417136 3.2189162 1.1985502e-39
1.5763853 0.94215405 3.1783757 1.1985488e-39
1.5623922 0.92621171 3.1245937 1.1985502e-39
1.5829129 0.93082166 3.1401455 1.2903871e-39
1.589723 0.92735994 3.1284673 1.2907458e-39
1.6204998 0.93782324 3.1637654 1.4747784e-39
1.1927321 0.68483704 2.3103116 1.6591696e-39
1.2046819 0.68630308 2.3152571 1.8439168e-39
1.2122248 0.68525529 2.3117223 1.9357551e-39
1.2021523 0.67434222 2.2749071 1.4740595e-39
1.2095678 0.67333061 2.2714944 7.3685318e-40
1.2129639 0.67011374 2.2606423 3.6878672e-40
1.209856 0.66337895 2.2379222 3.6878672e-40
1.0814764 0.58856833 1.9855471 2.7659109e-40
1.0947026 0.59135991 1.9949646 1.8439546e-40
-1.5759922 0.76365817 2.5414202 8.2050453e-39
-1.57786 0.76960003 2.5611944 8.7582205e-39
-1.5606021 0.76623029 2.5499802 9.4039486e-39
-1.5575975 0.76986045 2.5620611 1.0048955e-38
-1.5477232 0.7701211 2.5629284 1.0233349e-38
-1.5347238 0.76881975 2.5585978 9.2209979e-39
-1.5258867 0.76960003 2.5611944 6.3650886e-39
-1.5190892 0.7714268 2.5672739 3.227919e-39
-1.5122595 0.77326226 2.5733824 3.039209e-39
-1.5013051 0.77299953 2.5725079 5.3433781e-39
-1.4908645 0.77299953 2.5725079 7.3749203e-39
-1.4794185 0.77247459 2.570761 7.0990551e-39
-1.4655017 0.77064282 2.5646648 6.1760254e-39
-1.4650185 0.77589959 2.5821593 6.5458841e-39
-1.3134301 0.70062757 2.3316572 7.8359027e-39
-1.2493304 0.67127109 2.2339602 8.4812721e-39
-1.2304609 0.66596538 2.2163029 8.9426076e-39
-1.2157714 0.66286063 2.2059705 9.3113901e-39
-1.2047123 0.66170377 2.2021205 9.3121159e-39
-1.1968193 0.66228169 2.2040439 6.085992e-39
-1.1896057 0.66324711 2.2072568 4.3310268e-39
-1.1834077 0.66479766 2.2124169 5.9873027e-39
-1.1740854 0.66460347 2.2117705 8.2007195e-39
-1.1681803 0.66635549 2.2176013 1.0231904e-38
-1.1605399 0.66713715 2.2202027 1.0877996e-38
-1.1566169 0.67008471 2.2300119 1.0970554e-38
-1.165068 0.68030429 2.2640224 1.0603212e-38
-1.1744944 0.69126028 2.3004835 1.0880884e-38
-1.1798568 0.6999808 2.329505 1.2450355e-38
-1.183144 0.70760113 2.3548648 1.77019e-38
-1.1772484 0.70980895 2.3622124 2.1481936e-38
-1.1731519 0.71314657 2.3733201 2.3233655e-38
-1.169385 0.71674156 2.3852837 2.240352e-38
-1.17077 0.72358066 2.4080441 1.6412254e-38
-1.1824342 0.73694128 2.4525075 9.4007116e-39
-1.1698279 0.73527396 2.4469588 6.2656875e-39
-1.1851788 0.75130039 2.5002942 6.9125016e-39
-1.180881 0.75504071 2.5127418 9.6780146e-39
-1.1702945 0.75479019 2.5119081 1.2536078e-38
-1.1639618 0.75730282 2.5202699 1.1155314e-38
-1.1556567 0.75856543 2.5244718 4.7938168e-39
-1.1484747 0.76059431 2.531224 4.7898413e-39
-1.1401075 0.76186794 2.5354624 9.3978152e-39
-1.1309536 0.76263416 2.5380123 1.3273277e-38
-1.1217811 0.76340187 2.5405674 1.3367278e-38
-1.1055344 0.75932497 2.5269995 1.3552028e-38
-1.105239 0.76623029 2.5499802 1.3368354e-38
-1.0796174 0.75554222 2.5144107 1.3460552e-38
-1.0571245 0.74686068 2.4855189 1.355239e-38
-1.0691501 0.76263416 2.5380123 1.3644226e-38
-1.0500492 0.75629574 2.5169184 1.373642e-38
-1.0635231 0.77352518 2.5742574 1.3828616e-38
-1.0664927 0.78338075 2.6070561 1.3736779e-38
-1.0610269 0.78717566 2.6196854 1.3828972e-38
-1.0392473 0.77882153 2.5918832 1.3645301e-38
-1.0394032 0.78690338 2.6187792 1.3828973e-38
-1.0231125 0.78257227 2.6043656 1.4013723e-38
-1.0018588 0.77431506 2.5768859 1.3922246e-38
-1.0155978 0.79321396 2.6397805 1.4289953e-38
-1.0062877 0.79432178 2.6434674 1.429067e-38
-0.99521166 0.79404455 2.6425447 1.4198482e-38
-0.98897433 0.79766399 2.6545901 1.4290679e-38
-0.98476106 0.80301362 2.6723936 1.4290679e-38
-0.98014259 0.80814838 2.6894817 1.4198119e-38
-0.97476768 0.81276798 2.7048557 1.4474707e-38
-0.97037703 0.8183229 2.7233419 1.4290314e-38
-0.96313524 0.82157373 2.7341607 1.4013011e-38
-0.95618236 0.82514966 2.7460613 1.0692895e-38
-0.94813251 0.82785213 2.755055 9.9585559e-39
-0.93934387 0.82996631 2.7620907 1.4015164e-38
-0.93255675 0.83392143 2.7752533 1.4382871e-38
-0.92947048 0.84132308 2.7998857 1.4290673e-38
-0.92494839 0.84759223 2.8207493 1.4198837e-38
-0.9179464 0.85171759 2.8344779 1.4383233e-38
-0.91087592 0.85588324 2.8483412 1.4290318e-38
-0.9033944 0.85976481 2.8612587 1.4382876e-38
-0.89313203 0.86106646 2.8655908 1.4290318e-38
-0.88350844 0.86302644 2.8721132 1.4381432e-38
-0.8761729 0.86730373 2.886348 1.4289239e-38
-0.86183006 0.86466652 2.8775716 1.4105929e-38
-0.85830706 0.87296146 2.9051769 1.4198483e-38
-0.72902232 0.75179696 2.5019467 1.4014449e-38
-0.76810765 0.87767655 2.9208684 1.3369081e-38
-0.72951555 0.84664595 2.8175998 1.3185767e-38
-0.70444751 0.83057237 2.7641077 1.3461274e-38
-0.66436493 0.79598939 2.6490171 1.3828982e-38
-0.66336238 0.80786139 2.6885266 1.3644949e-38
-0.64876473 0.80329716 2.6733372 1.3461274e-38
-0.63836575 0.8038649 2.6752264 1.3461275e-38
-0.61940998 0.79349065 2.6407013 1.3644949e-38
-0.60343075 0.78663129 2.6178737 1.3460199e-38
-0.59527606 0.78990889 2.6287816 1.3092496e-38
-0.57015526 0.77038187 2.5637965 1.3277607e-38
-0.55975002 0.77038187 2.5637965 1.3369082e-38
-0.55555314 0.77908826 2.5927708 1.3276527e-38
-0.55685389 0.79598939 2.6490171 1.3368003e-38
-0.5542478 0.80786139 2.6885266 1.3552395e-38
-0.5398854 0.80273026 2.6714506 1.3737146e-38
-0.54263788 0.82335782 2.740098 1.3644953e-38
-0.53695863 0.83178705 2.7681501 1.3644953e-38
-0.52380884 0.82875687 2.7580659 1.3552762e-38
-0.51373804 0.83057237 2.7641077 1.3736793e-38
-0.50343889 0.83209133 2.7691627 1.3552403e-38
-0.49130166 0.83057237 2.7641077 1.3277251e-38
-0.47677615 0.8248505 2.7450655 1.3000663e-38
-0.46937937 0.83148307 2.7671385 1.2908107e-38
-0.45697969 0.82936114 2.7600768 1.2354216e-38
-0.44464314 0.82725006 2.7530513 1.1801758e-38
-0.43189925 0.82425278 2.7430763 1.115639e-38
-0.42061403 0.82395422 2.7420828 9.2206448e-39
-0.40874499 0.82246482 2.7371261 6.4547801e-39
-0.39577618 0.81861734 2.7243221 4.4261161e-39
-0.38115343 0.81102943 2.6990697 3.5037983e-39
-0.36823004 0.80671549 2.6847131 2.7665892e-39
-0.35670161 0.80528766 2.6799614 2.2130553e-39
-0.34497011 0.80329716 2.6733372 1.7520771e-39
-0.33108073 0.79598939 2.6490171 1.0145163e-39
-0.31943548 0.79376751 2.6416228 9.2232064e-40
-0.30871439 0.79376751 2.6416228 1.4751343e-39
-0.29820138 0.79432178 2.6434674 1.3836589e-39
-0.28797555 0.79571098 2.6480906 1.475856e-39
-0.27722821 0.79571098 2.6480906 1.5684103e-39
-0.26555204 0.79293746 2.6388605 1.8442783e-39
-0.26433194 0.82246482 2.7371261 1.7524428e-39
-0.25960544 0.84319407 2.8061123 2.1208652e-39
-0.24951148 0.84759223 2.8207493 2.1208624e-39
-0.24030168 0.85556138 2.84727 1.8446357e-39
-0.22917691 0.8571732 2.852634 2.1208652e-39
-0.21801014 0.85879111 2.8580184 2.3978137e-39
-0.20656675 0.85943997 2.8601778 2.766599e-39
-0.19562379 0.8623721 2.8699358 3.0431845e-39
-0.18439548 0.86433798 2.8764782 3.0435446e-39
-0.17278686 0.86466652 2.8775716 3.2272184e-39
-0.16209391 0.86995703 2.8951781 2.951349e-39
-0.15103684 0.87396759 2.908525 2.8591533e-39
-0.13869968 0.87062287 2.8973942 2.766599e-39
-0.12703776 0.87128979 2.8996134 2.7662388e-39
-0.11656427 0.88107574 2.9321809 2.7658773e-39
-0.10576998 0.89038652 2.9631667 2.6744019e-39
-0.093124278 0.8845014 2.9435811 2.8587918e-39
-0.080644645 0.87869358 2.924253 2.8591519e-39
-0.068749934 0.87835431 2.9231238 3.1353787e-39
-0.056886356 0.87835431 2.9231238 3.1353773e-39
-0.044970695 0.87733805 2.9197419 2.9506245e-39
-0.033365328 0.88381416 2.941294 2.6740362e-39
-0.021394763 0.88244283 2.9367304 2.6740362e-39
-0.0093562016 0.87128979 2.8996134 2.5818434e-39
0.0023710898 0.85652775 2.850486 2.5822021e-39
0.013697473 0.84163433 2.8009214 2.5825622e-39
0.024835384 0.83392143 2.7752533 2.5822063e-39
0.036966059 0.85395557 2.8419259 2.4900121e-39
0.048084941 0.84664595 2.8175998 2.4900121e-39
0.059720274 0.8494913 2.827069 2.3978165e-39
0.071273848 0.85044396 2.8302395 2.2137853e-39
0.083289772 0.85588324 2.8483412 2.2137881e-39
0.094636209 0.85395557 2.8419259 2.2137853e-39
0.10561521 0.8494913 2.827069 2.0293955e-39
0.11691431 0.84822434 2.8228526 2.029757e-39
0.12832308 0.8479082 2.8218005 2.0293983e-39
0.14035085 0.85139883 2.8334172 2.0293955e-39
0.15072219 0.8450734 2.8123665 2.0293955e-39
0.1621965 0.84538746 2.8134117 1.9368439e-39
0.17413248 0.8479082 2.8218005 1.9372054e-39
0.18503311 0.84538746 2.8134117 1.9372026e-39
0.1940715 0.83514595 2.7793286 1.8450056e-39
0.20565346 0.8363741 2.7834158 1.9368411e-39
0.2160762 0.83300537 2.7722046 2.0290367e-39
0.22575663 0.82725006 2.7530513 2.2134266e-39
0.23727509 0.82845509 2.7570615 2.6744019e-39
0.24419615 0.81422251 2.7096961 3.2268527e-39
0.25383079 0.80987453 2.6952264 3.5034409e-39
0.26151103 0.79990774 2.6620572 2.1205051e-39
0.2713609 0.79710501 2.6527297 1.6598829e-39
0.28094581 0.79376751 2.6416228 2.3970906e-39
0.29085502 0.79155797 2.6342695 1.3825785e-39
0.30123183 0.79073256 2.6315227 7.3720771e-40
0.30986556 0.78554475 2.6142578 7.3720911e-40
0.31893378 0.78176552 2.6016808 7.3756784e-40
0.32825196 0.77882153 2.5918832 1.0141547e-39
0.33532721 0.770904 2.5655339 8.2940334e-40
0.34318104 0.76519936 2.5465493 7.3756784e-40
0.35627252 0.77116531 2.5664036 9.219605e-40
0.37224039 0.78284156 2.6052618 1.1056343e-39
0.38910711 0.79571098 2.6480906 8.2976347e-40
0.40111715 0.79822373 2.6564529 8.2940334e-40
0.41970345 0.81334919 2.7067897 1.0137946e-39
0.42061356 0.79432178 2.6434674 1.1978257e-39
0.43209648 0.79571098 2.6480906 1.0134373e-39
0.44207072 0.79432178 2.6434674 1.1059902e-39
0.45216778 0.79321396 2.6397805 1.1981887e-39
0.46368977 0.79459924 2.6443908 2.7658731e-39
0.47458786 0.79487687 2.6453147 5.2544362e-39
0.48532394 0.79487687 2.6453147 5.8079702e-39
0.49502224 0.79321396 2.6397805 6.1774715e-39
0.5045045 0.79128265 2.6333532 7.0072308e-39
0.51519203 0.79128265 2.6333532 7.9295472e-39
0.51884139 0.7806924 2.5981095 8.7596652e-39
0.54127383 0.79822373 2.6564529 9.9574882e-39
0.55031729 0.79571098 2.6480906 1.0326275e-38
0.57721615 0.81861734 2.7243221 1.1247148e-38
0.60728467 0.8450734 2.8123665 1.1800323e-38
0.62590647 0.8549183 2.84513 1.2169825e-38
0.63578099 0.85267526 2.8376653 1.2354575e-38
0.66730696 0.87903309 2.9253829 1.2539325e-38
0.65269846 0.84475958 2.8113222 1.263116e-38
0.67008007 0.85235578 2.836602 1.2722997e-38
0.66636276 0.83331048 2.7732201 1.2630444e-38
0.67761797 0.83331048 2.7732201 1.2170189e-38
0.68660957 0.83057237 2.7641077 1.2077989e-38
0.70218599 0.83575958 2.7813706 1.1893238e-38
0.80284292 0.94044548 3.1297605 1.1708848e-38
0.81791192 0.94317478 3.1388435 1.1524457e-38
0.82415891 0.93580323 3.1143112 1.1431901e-38
0.8340537 0.93273377 3.1040962 1.1063839e-38
0.82731712 0.91143334 3.0332096 1.1155315e-38
0.83527708 0.90671092 3.0174932 1.0971283e-38
0.83982497 0.89847457 2.9900832 1.0787249e-38
0.84001696 0.88587916 2.9481661 1.0602859e-38
0.84867734 0.88244283 2.9367304 1.078725e-38
0.85102296 0.87262666 2.9040625 1.0786529e-38
0.85461378 0.86433798 2.8764782 1.0510663e-38
0.85975498 0.85781962 2.8547854 1.0694696e-38
0.86611575 0.85267526 2.8376653 1.0787252e-38
0.87013137 0.84538746 2.8134117 1.097164e-38
0.87504613 0.83915073 2.7926562 1.1063837e-38
0.88150287 0.83453327 2.7772894 1.0695056e-38
0.88659507 0.82875687 2.7580659 8.4805714e-39
0.89065057 0.82216758 2.7361369 6.639879e-39
0.89240229 0.81364006 2.7077577 7.1923451e-39
0.89602107 0.80700165 2.6856654 3.9644219e-39
0.89768612 0.79878426 2.6583183 1.8428434e-39
0.90088326 0.79210919 2.6361041 1.8435595e-39
0.90590429 0.78717566 2.6196854 1.936474e-39
0.91274637 0.78392065 2.6088529 2.028671e-39
0.91764271 0.77908826 2.5927708 1.9368341e-39
0.92310739 0.7748425 2.5786412 1.7517254e-39
0.92882752 0.770904 2.5655339 1.4754944e-39
0.93134969 0.76442796 2.543982 1.751724e-39
0.9360131 0.7598322 2.5286877 2.0279507e-39
0.92829293 0.74539238 2.4806325 2.0279521e-39
0.92442757 0.73432463 2.4437995 2.1201478e-39
0.9340443 0.73408765 2.4430108 2.2123434e-39
0.93193054 0.72473323 2.4118798 2.0279493e-39
0.9414193 0.72450244 2.4111116 1.7513624e-39
0.94969261 0.72335058 2.4072785 8.2940754e-40
0.95763564 0.72197324 2.4026947 4.6098516e-40
0.96616054 0.72105789 2.3996484 1.6591668e-39
0.97589958 0.72105789 2.3996484 3.0424586e-39
0.98563862 0.72105789 2.3996484 3.1335766e-39
0.99098027 0.71787238 2.3890471 2.85771e-39
1.0060734 0.72174418 2.4019322 2.6733187e-39
1.0164666 0.72220242 2.4034574 2.4889289e-39
1.0168595 0.71561426 2.3815322 2.3967318e-39
1.0435956 0.72751445 2.4211354 2.3041775e-39
1.0473926 0.72335058 2.4072785 2.027592e-39
1.0564908 0.72289091 2.4057486 1.9353964e-39
1.0796342 0.73196191 2.4359365 1.7513652e-39
1.1022884 0.74053961 2.4644828 1.6591682e-39
1.0823429 0.72060108 2.3981283 1.6591668e-39
1.1222926 0.74053961 2.4644828 1.5666138e-39
1.1442137 0.74833477 2.4904246 1.5666152e-39
1.1923671 0.77299953 2.5725079 1.566974e-39
1.2862874 0.82664883 2.7510505 1.5666138e-39
1.3036107 0.83057237 2.7641077 1.5666138e-39
1.2788765 0.80786139 2.6885266 1.474777e-39
1.2278712 0.76907969 2.5594628 1.2907458e-39
1.4517517 0.90167958 3.0007493 1.2903885e-39
1.5281326 0.94122368 3.1323504 1.2903871e-39
1.5915483 0.97219557 3.2354233 1.1985502e-39
1.5744023 0.95385224 3.1743777 1.1985488e-39
1.5688671 0.94278395 3.1375427 1.1985502e-39
1.584885 0.94474155 3.1440575 1.2903857e-39
1.5956572 0.94356602 3.1401455 1.2907458e-39
1.6259356 0.95385224 3.1743777 1.4751357e-39
1.6724788 0.97344357 3.2395768 1.7513638e-39
1.2054191 0.69612533 2.316674 1.9357537e-39
1.2129655 0.69506192 2.3131349 2.0279493e-39
1.2065027 0.68604875 2.2831395 1.5666138e-39
1.213573 0.68480963 2.2790158 8.2868727e-40
1.2206179 0.68357503 2.2749071 4.6062362e-40
1.2112882 0.67325765 2.2405715 3.6842659e-40
1.0794946 0.59553343 1.9819086 2.7659109e-40
1.09355 0.5988254 1.9928641 2.7659109e-40
-1.5828998 0.77736491 2.5525594 8.2975997e-39
-1.5842915 0.78317404 2.5716341 8.942609e-39
-1.5658761 0.77920389 2.5585978 9.4043074e-39
-1.562356 0.7826423 2.5698884 9.2195518e-39
-1.5513995 0.78237677 2.5690162 8.3887163e-39
-1.5373214 0.78052276 2.5629284 7.8373432e-39
-1.5289901 0.7815811 2.5664036 6.2714552e-39
-1.5201201 0.78237677 2.5690162 3.3190371e-39
-1.5102062 0.7826423 2.5698884 2.9470147e-39
-1.4987588 0.78211135 2.5681448 4.9749571e-39
-1.4873269 0.7815811 2.5664036 5.8086736e-39
-1.4739132 0.77999467 2.5611944 6.4533284e-39
-1.4497858 0.77267569 2.5371618 7.558957e-39
-1.4516506 0.77920389 2.5585978 8.113207e-39
-1.3057892 0.70595968 2.3180928 8.2975997e-39
-1.2548847 0.68336225 2.2438917 8.6660221e-39
-1.2329874 0.67634624 2.2208538 8.758575e-39
-1.2179006 0.67299014 2.2098339 9.219193e-39
-1.2064669 0.67161793 2.205328 9.0358878e-39
-1.1978655 0.67181361 2.2059705 6.0867052e-39
-1.1902997 0.67259753 2.2085445 4.2388284e-39
-1.1840997 0.67417085 2.2137108 5.6188803e-39
-1.1751153 0.67417085 2.2137108 7.6475429e-39
-1.1685226 0.67555356 2.218251 9.7709221e-39
-1.1612209 0.67654467 2.2215054 1.0784719e-38
-1.1593488 0.6807394 2.2352793 1.1246784e-38
-1.1654166 0.68969917 2.2646997 1.1802128e-38
-1.1759237 0.70144945 2.303283 1.272734e-38
-1.1794938 0.70921695 2.3287883 1.5034364e-38
-1.1835121 0.71738154 2.3555977 1.6780315e-38
-1.1779835 0.71984524 2.3636875 1.5303389e-38
-1.1735197 0.72300541 2.3740642 1.2259475e-38
-1.1704912 0.72710955 2.3875403 8.6631088e-39
-1.1730087 0.73475599 2.4126484 6.1745666e-39
-1.1835845 0.74762136 2.4548934 6.7295481e-39
-1.1713424 0.74616969 2.4501264 9.3099453e-39
-1.186354 0.7622031 2.5027738 1.1430808e-38
-1.1812731 0.7654928 2.513576 1.2353489e-38
-1.1710716 0.7654928 2.513576 1.2814464e-38
-1.1639618 0.76753139 2.5202699 1.1063841e-38
-1.1552715 0.76855475 2.5236301 4.5175929e-39
-1.1477072 0.77035224 2.5295324 5.0660667e-39
-1.1393445 0.77164131 2.5337653 9.3978166e-39
-1.1301959 0.77241683 2.5363119 1.3365118e-38
-1.1210288 0.77319396 2.5388634 1.3552029e-38
-1.1051656 0.76932406 2.5261564 1.3552746e-38
-1.105239 0.77657944 2.5499802 1.3460911e-38
-1.0767565 0.76371789 2.5077479 1.3552749e-38
-1.0553921 0.75570774 2.4814458 1.3460555e-38
-1.0638007 0.76906747 2.5253139 1.355239e-38
-1.0410508 0.75994211 2.4953496 1.355239e-38
-1.0524298 0.77579552 2.547406 1.3828616e-38
-1.0584739 0.78799188 2.5874541 1.4012646e-38
-1.0530109 0.79178029 2.5998938 1.4013363e-38
-1.0339378 0.785308 2.5786412 1.3829691e-38
-1.0315533 0.7915085 2.5990014 1.4013363e-38
-1.0061529 0.77999467 2.5611944 1.4013725e-38
-0.99710751 0.78105158 2.5646648 1.3921892e-38
-0.99207586 0.785308 2.5786412 1.4106284e-38
-0.98800415 0.79042315 2.5954373 1.4382151e-38
-0.9825229 0.7945087 2.6088529 1.4474707e-38
-0.97800094 0.7994675 2.6251354 1.4382513e-38
-0.97376198 0.8047694 2.6425447 1.4566184e-38
-0.96946639 0.81014204 2.6601865 1.4473988e-38
-0.96443081 0.81501037 2.676172 1.4198484e-38
-0.95933431 0.81993753 2.6923509 1.3921176e-38
-0.95145255 0.8225702 2.7009957 1.0417026e-38
-0.9455505 0.82699579 2.7155275 9.9581944e-39
-0.93823123 0.8302716 2.726284 1.4107719e-38
-0.93186444 0.83447856 2.740098 1.4659097e-38
-0.92745709 0.840563 2.7600768 1.4474707e-38
-0.92400301 0.84767067 2.7834158 1.4382511e-38
-0.91980791 0.85426611 2.8050725 1.4290318e-38
-0.91384077 0.85936052 2.8218005 1.4566544e-38
-0.90644258 0.86322135 2.8344779 1.4198119e-38
-0.89830196 0.86646533 2.84513 1.4198479e-38
-0.88608897 0.86581463 2.8429933 1.4106282e-38
-0.87884086 0.87006199 2.85694 1.419776e-38
-0.86626518 0.86907816 2.8537092 1.4289241e-38
-0.86445862 0.87901801 2.886348 1.4013371e-38
-0.84565151 0.87170672 2.8623405 1.4197758e-38
-0.73583108 0.76906747 2.5253139 1.4013369e-38
-0.72558206 0.76906747 2.5253139 1.3921535e-38
-0.74932033 0.84179056 2.7641077 1.4013014e-38
-0.75660992 0.86289829 2.8334172 1.3645671e-38
-0.77018762 0.89193976 2.9287779 1.3830059e-38
-0.72951555 0.85808122 2.8175998 1.3737859e-38
-0.72482407 0.86613983 2.8440611 1.3829335e-38
-0.64147133 0.77894062 2.5577333 1.3829339e-38
-0.64592957 0.79725599 2.6178737 1.382934e-38
-0.63442737 0.7961548 2.6142578 1.3829335e-38
-0.61763251 0.78826129 2.5883386 1.3922251e-38
-0.60341436 0.78344011 2.5725079 1.3738219e-38
-0.58521855 0.77319396 2.5388634 1.38297e-38
-0.57472181 0.77293473 2.5380123 1.3737866e-38
-0.55973023 0.76651073 2.5169184 1.4014456e-38
-0.54878545 0.7654928 2.513576 1.4105931e-38
-0.53930026 0.76651073 2.5169184 1.4106289e-38
-0.54354113 0.78745365 2.5856867 1.4014092e-38
-0.53856516 0.79560536 2.6124537 1.401409e-38
-0.52650899 0.79341513 2.6052618 1.4198842e-38
-0.52607316 0.80900502 2.6564529 1.4014813e-38
-0.52151346 0.81877285 2.6885266 1.410665e-38
-0.5052197 0.81014204 2.6601865 1.4014459e-38
-0.49862811 0.81703198 2.6828103 1.3921903e-38
-0.49052098 0.82169074 2.698108 1.3921542e-38
-0.48197538 0.82581097 2.711637 1.3462002e-38
-0.47029635 0.8246296 2.7077577 1.3185054e-38
-0.46261597 0.8305707 2.7272661 1.2723714e-38
-0.45531976 0.83750975 2.750051 1.2262378e-38
-0.44175166 0.83297122 2.7351484 1.1801038e-38
-0.42925531 0.8302716 2.726284 1.0326269e-38
-0.41849202 0.83087003 2.7282488 8.3908813e-39
-0.4053742 0.82669926 2.7145538 6.6388084e-39
-0.39336982 0.8246296 2.7077577 5.9012406e-39
-0.37685418 0.81271213 2.6686256 5.5324567e-39
-0.36435392 0.80900502 2.6564529 5.2558712e-39
-0.35320085 0.80815434 2.6536596 4.979643e-39
-0.34123486 0.80533159 2.6443908 4.7945315e-39
-0.32889423 0.8014127 2.6315227 2.2126979e-39
-0.31645423 0.79698038 2.6169689 3.1357346e-39
-0.30583319 0.79698038 2.6169689 4.7026988e-39
-0.29521215 0.79698038 2.6169689 4.610506e-39
-0.2843945 0.79642981 2.6151609 4.5186719e-39
-0.27434942 0.79808384 2.6205921 4.3342778e-39
-0.26226121 0.79368824 2.6061587 4.1498865e-39
-0.25798947 0.81357247 2.6714506 4.5179502e-39
-0.25581282 0.842098 2.7651172 4.0573322e-39
-0.24575737 0.84611535 2.7783086 3.7807425e-39
-0.23841871 0.86032248 2.8249593 3.5048745e-39
-0.22737776 0.86193055 2.8302395 3.5041584e-39
-0.21629545 0.8635447 2.8355396 3.6885525e-39
-0.20494086 0.86419201 2.8376653 3.7814712e-39
-0.19437119 0.86842346 2.8515596 3.873664e-39
-0.18321212 0.87039047 2.8580184 4.1502495e-39
-0.17206746 0.87269658 2.8655908 4.149895e-39
-0.16159953 0.87901801 2.886348 3.9658624e-39
-0.15028629 0.88137013 2.8940713 3.781111e-39
-0.1383291 0.88002455 2.889653 3.5045241e-39
-0.12708643 0.88339627 2.9007244 3.2279345e-39
-0.11656427 0.89297611 2.9321809 3.2279345e-39
-0.10556339 0.90065014 2.9573791 3.1357402e-39
-0.092691809 0.89228493 2.9299114 3.2275743e-39
-0.080303453 0.88679397 2.911881 3.2275743e-39
-0.068118714 0.88204449 2.8962858 3.3201301e-39
-0.056277946 0.88069683 2.8918605 3.2279317e-39
-0.044354893 0.8770119 2.8797607 3.1350144e-39
-0.032767016 0.8796888 2.8885505 3.0424614e-39
-0.020947853 0.87567955 2.8753858 2.8587862e-39
-0.0091666197 0.86516482 2.8408597 2.8584317e-39
0.0023333139 0.85426611 2.8050725 2.766592e-39
0.013482982 0.83964467 2.7570615 2.8584317e-39
0.024511913 0.83417666 2.7391067 2.766599e-39
0.036072373 0.84456569 2.7732201 2.6747621e-39
0.046493068 0.82967407 2.7243221 2.6747621e-39
0.058326364 0.84086955 2.7610834 2.7662388e-39
0.069940411 0.84580493 2.7772894 2.8584345e-39
0.082390845 0.85808122 2.8175998 2.8587946e-39
0.093201794 0.85237128 2.7988505 2.8587946e-39
0.10444517 0.85142702 2.7957499 2.9506315e-39
0.11523858 0.84735918 2.7823927 2.9509916e-39
0.12681063 0.84923178 2.7885418 3.0435488e-39
0.13863863 0.85237128 2.7988505 3.1353843e-39
0.14911582 0.84735918 2.7823927 2.9509944e-39
0.16040823 0.84735918 2.7823927 2.9506357e-39
0.17163756 0.84704787 2.7813706 2.9502742e-39
0.18218957 0.8436386 2.7701759 2.6744061e-39
0.19147076 0.83508307 2.7420828 2.5822105e-39
0.20400344 0.84086955 2.7610834 2.4900149e-39
0.21458331 0.83842337 2.7530513 2.4896534e-39
0.22404574 0.8320694 2.7321873 2.6736831e-39
0.23598601 0.83508307 2.7420828 2.766236e-39
0.24220236 0.81848216 2.6875722 3.2264925e-39
0.2504428 0.80985749 2.6592522 3.4108838e-39
0.25815251 0.8003 2.6278691 2.8580715e-39
0.26798064 0.79780769 2.6196854 1.1989089e-39
0.27803546 0.7961548 2.6142578 1.9368299e-39
0.28804868 0.7945087 2.6088529 1.5669712e-39
0.29843113 0.79396152 2.6070561 5.5317938e-40
0.30742398 0.78988159 2.5936592 7.3721051e-40
0.31686491 0.78718483 2.5848041 6.4501348e-40
0.3263526 0.78477341 2.5768859 7.3720771e-40
0.33284581 0.77553457 2.5465493 6.4537221e-40
0.34180143 0.77241683 2.5363119 6.4537221e-40
0.35363522 0.77579552 2.547406 8.2976207e-40
0.37185651 0.79259688 2.6025751 1.0134359e-39
0.38965228 0.80758822 2.6518006 8.2904461e-40
0.40252954 0.81185365 2.6658065 7.3720771e-40
0.41985357 0.8246296 2.7077577 1.0137932e-39
0.42179173 0.8073054 2.6508722 1.0137932e-39
0.43330896 0.80872124 2.6555212 8.2976487e-40
0.44330901 0.8073054 2.6508722 1.013796e-39
0.45359117 0.80645829 2.6480906 1.0141575e-39
0.46498907 0.80758822 2.6518006 2.8584317e-39
0.47641897 0.80872124 2.6555212 5.4388275e-39
0.48702565 0.80843771 2.6545901 5.9923628e-39
0.49692819 0.80702287 2.6499443 6.26967e-39
0.5066191 0.80533159 2.6443908 7.0068721e-39
0.51735139 0.80533159 2.6443908 7.9295472e-39
0.52116638 0.79478258 2.6097522 8.7596652e-39
0.54703206 0.81761146 2.6847131 9.4968687e-39
0.55773026 0.8173216 2.6837614 1.0325555e-38
0.58287925 0.83781403 2.7510505 1.1063117e-38
0.60841471 0.85808122 2.8175998 1.1524096e-38
0.62543637 0.86581463 2.8429933 1.1524814e-38
0.63435441 0.86225289 2.8312979 1.1801042e-38
0.65840274 0.87901801 2.886348 1.2170183e-38
0.65294093 0.85648745 2.8123665 1.2170902e-38
0.66559124 0.85808122 2.8175998 1.2170902e-38
0.65864241 0.83478069 2.7410901 1.2446056e-38
0.66304553 0.82640296 2.7135808 1.2077993e-38
0.66033131 0.80957311 2.6583183 1.2170183e-38
0.6833573 0.82433474 2.7067897 1.2169106e-38
0.79887986 0.94844276 3.1143112 1.1708848e-38
0.81386286 0.95118165 3.1233048 1.1616652e-38
0.79885578 0.91932386 3.0186965 1.1432258e-38
0.83234733 0.94339782 3.0977459 1.1155673e-38
0.8126657 0.90738463 2.9794927 1.1247151e-38
0.83494431 0.91859138 3.0162911 1.1155312e-38
0.82388103 0.89332211 2.9333169 1.0971281e-38
0.82586658 0.88271987 2.8985033 1.0787612e-38
0.84703451 0.8926304 2.9310455 1.0879087e-38
0.84647721 0.8796888 2.8885505 1.0694334e-38
0.85041344 0.87170672 2.8623405 1.0694337e-38
0.85652524 0.86613983 2.8440611 1.0786533e-38
0.86352646 0.86160851 2.8291819 1.0879089e-38
0.86690986 0.85363358 2.8029954 1.1247868e-38
0.87150997 0.84704787 2.7813706 1.1247867e-38
0.87796009 0.84240568 2.7661273 1.1340423e-38
0.88273609 0.83629465 2.7460613 1.1339709e-38
0.88776302 0.8305707 2.7272661 9.1284492e-39
0.88922191 0.82169074 2.698108 6.4558535e-39
0.89127856 0.81357247 2.6714506 7.6511709e-39
0.89360714 0.80589455 2.6462393 5.3466389e-39
0.89682382 0.7991904 2.6242256 1.9357551e-39
0.90122664 0.79368824 2.6061587 1.6591668e-39
0.90743065 0.78988159 2.5936592 2.0283109e-39
0.91202068 0.78477341 2.5768859 2.0279521e-39
0.91686177 0.77999467 2.5611944 2.1201478e-39
0.92164427 0.7752738 2.5456929 2.0283109e-39
0.9248237 0.76932406 2.5261564 1.75244e-39
0.93134707 0.76625597 2.516082 1.7513652e-39
0.92556351 0.75323892 2.4733391 1.8435623e-39
0.92502475 0.74472362 2.4453781 2.1197876e-39
0.9346475 0.74448311 2.4445887 2.1201464e-39
0.93193054 0.73452193 2.4118798 2.0283095e-39
0.94171923 0.73452193 2.4118798 1.8435581e-39
0.94908905 0.73265469 2.4057486 8.2976627e-40
0.95672476 0.73102862 2.4004092 4.6098375e-40
0.96554846 0.73033398 2.3981283 1.6591682e-39
0.97466391 0.72987157 2.39661 3.1346556e-39
0.98439062 0.72987157 2.39661 3.0421027e-39
0.99004304 0.72688031 2.3867877 2.6736789e-39
1.0047982 0.73056537 2.3988881 2.5811245e-39
1.0151775 0.73102862 2.4004092 2.4885687e-39
1.0155817 0.72436827 2.3785393 2.3048964e-39
1.0379527 0.73335379 2.4080441 2.2127007e-39
1.042091 0.72940975 2.3950937 2.0283095e-39
1.0521444 0.7296406 2.3958516 1.9357565e-39
1.0628772 0.73033398 2.3981283 1.8435609e-39
1.0688857 0.72779804 2.3898013 1.7513652e-39
1.0677989 0.72052008 2.3659034 1.6591696e-39
1.1382248 0.76119655 2.4994688 1.566974e-39
1.1945088 0.79178029 2.5998938 1.6588123e-39
1.2239751 0.80420798 2.6407013 1.5673341e-39
1.2966532 0.84456569 2.7732201 1.4751371e-39
1.3021845 0.84086955 2.7610834 1.474777e-39
1.2788765 0.81877285 2.6885266 1.474777e-39
1.2341294 0.78344011 2.5725079 1.4747784e-39
1.4488804 0.91205072 2.9948144 1.3829429e-39
1.5370355 0.95949411 3.1505995 1.3829415e-39
1.6559461 1.0251954 3.3663366 1.3829387e-39
1.6297524 1.0007224 3.2859769 1.3825813e-39
1.6136727 0.98280662 3.2271488 1.2907458e-39
1.6035306 0.96876651 3.1810465 1.2903857e-39
1.616441 0.96876651 3.1810465 1.3825827e-39
1.6508541 0.98155141 3.2230272 1.3833002e-39
1.720327 1.014817 3.3322582 1.6595269e-39
1.2117224 0.70921695 2.3287883 2.0275906e-39
1.2189243 0.70791042 2.3244982 2.0279493e-39
1.2227271 0.70466512 2.3138418 1.6588081e-39
1.2309892 0.70401961 2.3117223 8.2904881e-40
1.2350916 0.70102286 2.3018823 4.6062362e-40
1.2195896 0.68702751 2.2559268 3.6842659e-40
1.0766761 0.60200113 1.9767339 2.7623096e-40
1.0932622 0.60675377 1.9923397 2.7623096e-40
-1.5802358 0.78639883 2.5482635 9.0348018e-39
-1.5826787 0.79280317 2.5690162 8.3890736e-39
-1.5637622 0.78852206 2.5551436 7.3763594e-39
-1.5612961 0.79253423 2.5681448 7.4674775e-39
-1.5508732 0.79253423 2.5681448 7.8355425e-39
-1.538363 0.79146034 2.5646648 7.7444273e-39
-1.5289901 0.79199696 2.5664036 6.0859864e-39
-1.5185742 0.79199696 2.5664036 3.2257638e-39
-1.5086699 0.79226547 2.5672739 2.8551793e-39
-1.4977427 0.79199696 2.5664036 4.699089e-39
-1.4858159 0.79119235 2.5637965 6.6380755e-39
-1.4704312 0.78852206 2.5551436 7.7440672e-39
-1.4401335 0.77775997 2.5202699 8.1128497e-39
-1.4342017 0.78009713 2.5278432 8.2046838e-39
-1.3006122 0.71253157 2.3089023 8.2968808e-39
-1.2545129 0.69226396 2.243227 8.2972424e-39
-1.2362512 0.68717378 2.2267325 8.2061285e-39
-1.2207512 0.68355501 2.2150061 8.2986815e-39
-1.2082267 0.68156093 2.2085445 8.0217345e-39
-1.2003137 0.68215793 2.210479 5.2558642e-39
-1.1927353 0.68295556 2.2130637 4.237748e-39
-1.1865283 0.68455637 2.218251 5.5270448e-39
-1.1771805 0.68435585 2.2176013 7.1865634e-39
-1.1702369 0.6855607 2.2215054 9.5847302e-39
-1.1629272 0.68656802 2.2247696 1.069036e-38
-1.1607196 0.69062692 2.2379222 1.0598523e-38
-1.1661142 0.69930887 2.2660553 9.3099523e-39
-1.1734247 0.70928687 2.2983882 7.2838177e-39
-1.1776825 0.71756476 2.3252122 6.2693028e-39
-1.182776 0.72648972 2.3541327 5.6232146e-39
-1.1768812 0.72875577 2.3614757 5.3469864e-39
-1.1727842 0.73218143 2.3725762 6.176017e-39
-1.1697534 0.73633498 2.3860354 7.6504254e-39
-1.1718882 0.74383664 2.4103441 9.1270002e-39
-1.1820513 0.7566033 2.4517133 1.0418459e-38
-1.1698279 0.75513607 2.4469588 1.1338971e-38
-1.1847874 0.77134067 2.4994688 1.1707395e-38
-1.1797063 0.77466542 2.5102422 1.1707397e-38
-1.1699064 0.77492237 2.5110748 1.1984343e-38
-1.1635745 0.77750117 2.5194311 1.0234801e-38
-1.1552715 0.77879697 2.5236301 4.0573322e-39
-1.1480908 0.78087932 2.5303779 5.1575435e-39
-1.1401075 0.78244841 2.5354624 9.6740475e-39
-1.1309536 0.78323531 2.5380123 1.3274003e-38
-1.1214049 0.78376079 2.5397151 1.3460192e-38
-1.1047969 0.77931654 2.5253139 1.3644943e-38
-1.1056113 0.78719372 2.5508392 1.3644946e-38
-1.0774703 0.77440864 2.5094104 1.3736782e-38
-1.0595595 0.76880252 2.4912441 1.3644586e-38
-1.0662904 0.78114039 2.531224 1.3828258e-38
-1.0431136 0.77159542 2.5002942 1.3920813e-38
-1.0412188 0.77775997 2.5202699 1.4105203e-38
-1.0424418 0.78639883 2.5482635 1.410484e-38
-1.040152 0.79253423 2.5681448 1.392117e-38
-1.0262479 0.78985494 2.5594628 1.4013366e-38
-1.0120965 0.78692859 2.5499802 1.3920809e-38
-1.0007362 0.78613424 2.547406 1.4105561e-38
-0.99039751 0.78613424 2.547406 1.4105924e-38
-0.98436457 0.78958803 2.5585978 1.4014808e-38
-0.97827834 0.79307228 2.5698884 1.4198117e-38
-0.9734658 0.79767531 2.5848041 1.438215e-38
-0.96926278 0.80288351 2.6016808 1.4382151e-38
-0.96533841 0.80843979 2.6196854 1.4381791e-38
-0.96102452 0.81378996 2.6370223 1.4473988e-38
-0.95297754 0.81606388 2.6443908 1.3828623e-38
-0.94455469 0.81806403 2.6508722 1.0232635e-38
-0.93674797 0.82065016 2.6592522 1.0326974e-38
-0.92987472 0.8241238 2.6705081 1.4107002e-38
-0.92556596 0.829979 2.6894817 1.4659095e-38
-0.92218536 0.83681625 2.711637 1.4658735e-38
-0.91742331 0.84254992 2.7302167 1.4474704e-38
-0.91425544 0.84990579 2.7540526 1.4289954e-38
-0.90936321 0.85582083 2.7732201 1.4474708e-38
-0.90306991 0.86054915 2.7885418 1.4474707e-38
-0.89538026 0.86404991 2.7998857 1.4382151e-38
-0.89027244 0.87016422 2.8196986 1.4198121e-38
-0.88046825 0.87178767 2.8249593 1.419776e-38
-0.86129004 0.86404991 2.7998857 1.41974e-38
-0.86626518 0.88066 2.8537092 1.4289955e-38
-0.84702086 0.87276465 2.828125 1.4106284e-38
-0.75134307 0.78481388 2.5431275 1.4198117e-38
-0.72974581 0.77287161 2.5044296 1.4289597e-38
-0.71768224 0.7708317 2.4978194 1.4105924e-38
-0.7075448 0.7708317 2.4978194 1.3921892e-38
-0.72883111 0.82968426 2.6885266 1.4014089e-38
-0.77770901 0.91265273 2.9573791 1.4014089e-38
-0.71228504 0.84897929 2.7510505 1.4105924e-38
-0.71808028 0.86951655 2.8175998 1.3737139e-38
-0.65316653 0.80371207 2.6043656 1.3645668e-38
-0.64592957 0.8078807 2.6178737 1.429032e-38
-0.64039797 0.81435722 2.6388605 1.4105566e-38
-0.62619585 0.80984086 2.6242256 1.3921895e-38
-0.6056782 0.79685915 2.5821593 1.4015169e-38
-0.58996677 0.78985494 2.5594628 1.4199202e-38
-0.57607365 0.78507763 2.543982 1.4290681e-38
-0.55880135 0.77543676 2.5127418 1.4658748e-38
-0.54951525 0.77672571 2.5169184 1.429068e-38
-0.53930026 0.77672571 2.5169184 1.4474711e-38
-0.54354113 0.7979477 2.5856867 1.447471e-38
-0.5341416 0.79958624 2.5909963 1.4474708e-38
-0.52488345 0.80150634 2.597218 1.4567626e-38
-0.52204335 0.8135066 2.6361041 1.447615e-38
-0.5161975 0.82122707 2.6611216 1.4567624e-38
-0.50204444 0.81577897 2.6434674 1.4476153e-38
-0.49200299 0.81691992 2.6471646 1.4383239e-38
-0.48260936 0.81921142 2.6545901 1.4014453e-38
-0.47735909 0.82880133 2.6856654 1.3737513e-38
-0.46778676 0.83116007 2.6933086 1.327725e-38
-0.4579964 0.83323503 2.7000325 1.2816989e-38
-0.45187286 0.84224617 2.7292325 1.2263098e-38
-0.43858272 0.83801687 2.7155275 1.1432621e-38
-0.42512196 0.83323503 2.7000325 1.0049688e-38
-0.41490364 0.83472347 2.7048557 8.3905226e-39
-0.39823481 0.82296264 2.6667457 7.2838149e-39
-0.38686669 0.82180476 2.6629937 6.8231955e-39
-0.37084126 0.81040269 2.6260459 6.6384455e-39
-0.35918668 0.80816013 2.6187792 6.7302838e-39
-0.34795651 0.80676484 2.6142578 6.5458897e-39
-0.33630133 0.80426538 2.6061587 6.1767429e-39
-0.32482964 0.80205661 2.5990014 2.4889219e-39
-0.3128852 0.79849315 2.5874541 4.8870915e-39
-0.30228063 0.79822034 2.58657 6.1774659e-39
-0.29178298 0.79822034 2.58657 6.0852717e-39
-0.28109324 0.79767531 2.5848041 6.0852717e-39
-0.27134386 0.79985994 2.5918832 5.9016007e-39
-0.26037896 0.79849315 2.5874541 6.1785477e-39
-0.25290284 0.80816013 2.6187792 6.3622201e-39
-0.24784695 0.82674837 2.679013 6.2700245e-39
-0.23943111 0.83532035 2.7067897 6.1778275e-39
-0.23482622 0.85865158 2.7823927 5.9016035e-39
-0.22402781 0.86054915 2.7885418 5.7172123e-39
-0.21357575 0.86404991 2.7998857 5.8097722e-39
-0.20228717 0.86436957 2.8009214 5.9938062e-39
-0.19234273 0.87081289 2.8218005 6.0863605e-39
-0.18109287 0.87178767 2.8249593 6.2703902e-39
-0.17026301 0.87505281 2.8355396 6.2707504e-39
-0.15935172 0.87834245 2.8461995 6.178196e-39
-0.14841409 0.88198978 2.8580184 5.9016063e-39
-0.13660847 0.88066 2.8537092 5.7175752e-39
-0.12554716 0.88432664 2.8655908 5.5328252e-39
-0.1143499 0.88768655 2.8764782 5.3487955e-39
-0.10310656 0.89141202 2.8885505 5.3480766e-39
-0.09076 0.88533193 2.8688483 5.4406282e-39
-0.078996964 0.88399202 2.8645065 5.4406268e-39
-0.066991091 0.87900335 2.8483412 5.4406254e-39
-0.055535495 0.88066 2.8537092 5.2562341e-39
-0.04393708 0.88032818 2.852634 4.8870915e-39
-0.032469697 0.88332361 2.8623405 4.7023429e-39
-0.020758636 0.87933421 2.8494132 4.5179502e-39
-0.0091426056 0.87439781 2.8334172 4.3339219e-39
0.0023152994 0.85896724 2.7834158 4.1498879e-39
0.013298947 0.83922088 2.7194293 4.1491705e-39
0.024059277 0.82968426 2.6885266 3.9647806e-39
0.03288066 0.78009713 2.5278432 3.7803894e-39
0.044127129 0.7979477 2.5856867 3.5041626e-39
0.053939592 0.78799021 2.5534201 3.4119698e-39
0.065585673 0.80371207 2.6043656 3.2275757e-39
0.075198442 0.79361105 2.5716341 3.2275757e-39
0.087538496 0.81124687 2.6287816 3.0435432e-39
0.099102147 0.81863731 2.6527297 3.0431859e-39
0.10971455 0.81749159 2.6490171 3.1357402e-39
0.12135736 0.82354283 2.6686256 2.9513504e-39
0.13317382 0.82968426 2.6885266 2.9506329e-39
0.14408527 0.82968426 2.6885266 2.8587974e-39
0.15711692 0.84103346 2.7253027 2.5829266e-39
0.16757441 0.83801687 2.7155275 2.6744005e-39
0.17681964 0.82968426 2.6885266 2.4900121e-39
0.18706679 0.82674837 2.679013 2.581849e-39
0.20172283 0.84254992 2.7302167 2.3978165e-39
0.21334204 0.84468222 2.7371261 2.2130637e-39
0.2226796 0.83801687 2.7155275 2.2130623e-39
0.23488009 0.84224617 2.7292325 2.2127021e-39
0.24143101 0.82674837 2.679013 2.3045376e-39
0.24791749 0.81237513 2.6324377 2.3045362e-39
0.25575563 0.80343568 2.6034701 2.2130595e-39
0.2651366 0.79985994 2.5918832 1.3832988e-39
0.27527887 0.79876614 2.5883386 1.1063504e-39
0.28539342 0.79767531 2.5848041 1.1067133e-39
0.29578292 0.79740304 2.5839217 7.3757064e-40
0.30491698 0.7938807 2.5725079 5.5353952e-40
0.31407693 0.79065686 2.5620611 4.6098235e-40
0.32327172 0.78772455 2.5525594 4.6062222e-40
0.3299602 0.77905667 2.5244718 7.3721051e-40
0.33717027 0.7721054 2.5019467 7.3721051e-40
0.35033464 0.77879697 2.5236301 4.6098235e-40
0.36931738 0.79767531 2.5848041 4.6098095e-40
0.38802135 0.81492531 2.6407013 6.4501348e-40
0.40380922 0.82528824 2.6742814 7.3756784e-40
0.42030454 0.83651662 2.7106662 6.4537221e-40
0.42386952 0.8220939 2.6639307 5.5281645e-40
0.43529382 0.82325262 2.6676853 6.4501348e-40
0.44455424 0.82036197 2.6583183 9.2124304e-40
0.45470446 0.81921142 2.6545901 1.0141575e-39
0.46629569 0.82065016 2.6592522 3.1350158e-39
0.47742373 0.82122707 2.6611216 5.6235775e-39
0.4880524 0.82093847 2.6601865 6.2700245e-39
0.49797398 0.81949878 2.6555212 6.7310055e-39
0.50750542 0.81749159 2.6490171 7.3752945e-39
0.51753217 0.81634903 2.6453147 8.0206625e-39
0.52152598 0.80592996 2.6115525 8.5749138e-39
0.54222512 0.82122707 2.6611216 9.49651e-39
0.5532198 0.8215158 2.6620572 1.0141877e-38
0.5793007 0.84376705 2.7341607 1.0602496e-38
0.60458964 0.86404991 2.7998857 1.0787249e-38
0.61755174 0.86629254 2.8071527 1.115639e-38
0.62801319 0.86500961 2.8029954 1.1709205e-38
0.64128864 0.86757928 2.8113222 1.1893955e-38
0.64740956 0.86054915 2.7885418 1.1893955e-38
0.65872693 0.86054915 2.7885418 1.1893955e-38
0.64601219 0.82968426 2.6885266 1.1801762e-38
0.65413612 0.82616371 2.6771183 1.1893961e-38
0.65481323 0.8135066 2.6361041 1.1986151e-38
0.67443556 0.82441461 2.6714506 1.198543e-38
0.80483919 0.96825153 3.1375427 1.1893238e-38
0.82303029 0.97471464 3.1584859 1.1708849e-38
0.82415891 0.96108222 3.1143112 1.1340423e-38
0.84549332 0.97106856 3.1466711 1.1156389e-38
0.85471171 0.96704924 3.1336467 1.1340064e-38
0.84232724 0.93906391 3.0429626 1.1247151e-38
0.8213352 0.90242988 2.924253 1.1063839e-38
0.8246038 0.89311582 2.8940713 1.0880165e-38
0.83988106 0.89688712 2.906292 1.08798e-38
0.84518737 0.89005369 2.8841488 1.0879083e-38
0.84561783 0.87834245 2.8461995 1.078725e-38
0.85045511 0.87146252 2.8239055 1.0695411e-38
0.85871303 0.86822408 2.8134117 1.0879443e-38
0.86371207 0.86181885 2.7926562 1.1340424e-38
0.86768478 0.85456872 2.7691627 1.1616651e-38
0.87380975 0.84959668 2.7530513 1.1524457e-38
0.87954587 0.84437692 2.7361369 1.1432621e-38
0.88330829 0.83741611 2.7135808 1.1340427e-38
0.8835541 0.82733393 2.6809103 9.774899e-39
0.88783246 0.82122707 2.6611216 7.1898298e-39
0.89018458 0.8135066 2.6361041 7.6508094e-39
0.89280081 0.80620807 2.6124537 7.0072308e-39
0.89690423 0.80040801 2.5936592 2.3978094e-39
0.90279144 0.79631591 2.580399 1.3829401e-39
0.90616053 0.79012209 2.5603282 1.9357523e-39
0.91070002 0.78507763 2.543982 2.2119819e-39
0.91579354 0.78061843 2.5295324 2.0283095e-39
0.91930234 0.77492237 2.5110748 2.3059711e-39
0.92550308 0.77159542 2.5002942 2.5825608e-39
0.92315084 0.76128739 2.4668918 1.9346775e-39
0.92472607 0.75440454 2.4445887 1.7517254e-39
0.93434578 0.75416106 2.4437995 1.9361152e-39
0.9331196 0.7452603 2.4149573 2.0279493e-39
0.94111955 0.74383664 2.4103441 1.9353936e-39
0.9475835 0.7412408 2.4019322 9.2160177e-40
0.95551294 0.73983246 2.3973689 3.6914826e-40
0.96402168 0.73889655 2.3943362 1.6595269e-39
0.97343129 0.73866296 2.3935792 3.2261324e-39
0.98345661 0.73889655 2.3943362 3.2261338e-39
0.98941922 0.736103 2.3852837 2.949907e-39
1.0028915 0.73889655 2.3943362 2.7655158e-39
1.0129294 0.73913032 2.3950937 2.7651542e-39
1.014307 0.73310041 2.3755541 2.5811245e-39
1.0313916 0.73842949 2.3928225 2.3970934e-39
1.0388048 0.73679942 2.3875403 2.2127021e-39
1.0481641 0.73656714 2.3867877 2.1205065e-39
1.0525417 0.73287046 2.3748088 2.1197876e-39
1.0661932 0.73563945 2.3837817 2.1197862e-39
1.0751908 0.7351765 2.3822815 1.9353964e-39
1.0962427 0.7428906 2.4072785 1.8435609e-39
1.1442137 0.76854968 2.4904246 1.7517254e-39
1.1923671 0.7938807 2.5725079 1.7513652e-39
1.2820946 0.84621185 2.7420828 1.7513652e-39
1.2679651 0.82968426 2.6885266 1.7513638e-39
1.2341728 0.80068231 2.594548 1.5673313e-39
1.2341294 0.7938807 2.5725079 1.566974e-39
1.4488804 0.9242053 2.9948144 1.4754958e-39
1.5551564 0.98374355 3.1877434 1.4751357e-39
1.6836451 1.0562346 3.4226451 1.4747755e-39
1.6505274 1.026985 3.3278642 1.4747755e-39
1.6640335 1.026985 3.3278642 1.2907458e-39
1.6309414 0.99845767 3.2354233 1.2907444e-39
1.6858587 1.0238348 3.3176558 1.2911046e-39
1.6830974 1.0140586 3.2859769 1.4754944e-39
1.7410169 1.0407087 3.3723345 1.6595269e-39
1.7760638 1.0533774 3.4133863 1.9357537e-39
1.2181762 0.71690422 2.3230717 2.1201464e-39
1.2279812 0.71712428 2.3237848 1.8432007e-39
1.2400768 0.7186684 2.3287883 1.0130799e-39
1.2418882 0.71427423 2.3145492 4.6026349e-40
1.2269013 0.70035702 2.2694516 3.6842799e-40
1.0766761 0.61002374 1.9767339 2.7659109e-40
1.0909654 0.61354804 1.9881541 2.7623096e-40
-1.5845025 0.7988922 2.5551436 7.1912507e-39
-1.5848298 0.80432129 2.5725079 6.8217465e-39
-1.5664055 0.8002426 2.5594628 7.0068595e-39
-1.5644802 0.8045947 2.5733824 7.2834492e-39
-1.5556223 0.80541599 2.576009 7.3756448e-39
-1.543592 0.8045947 2.5733824 7.0072224e-39
-1.5321063 0.80404812 2.5716341 5.0711156e-39
-1.5206362 0.80350226 2.5698884 2.7647871e-39
-1.5102062 0.80350226 2.5698884 2.9477364e-39
-1.4987588 0.80295712 2.5681448 4.9756759e-39
-1.4858159 0.80159754 2.5637965 7.1890899e-39
-1.467954 0.79754639 2.5508392 7.8344607e-39
-1.4344034 0.78485334 2.5102422 7.5575137e-39
-1.4055741 0.77458036 2.4773858 7.9262934e-39
-1.2958698 0.71926999 2.3004835 9.031562e-39
-1.2530278 0.70053792 2.2405715 1.1426137e-38
-1.2384367 0.69744182 2.230669 1.2905593e-38
-1.2228979 0.69376248 2.2189012 9.9567735e-39
-1.2096381 0.69133109 2.2111247 7.0054287e-39
-1.2024201 0.6923421 2.2143583 3.8711318e-39
-1.1948309 0.69315302 2.2169518 3.9604422e-39
-1.1879205 0.69437301 2.2208538 5.3426536e-39
-1.1789072 0.69437301 2.2208538 6.4489983e-39
-1.1726456 0.69600636 2.2260778 7.2794793e-39
-1.1636111 0.69600636 2.2260778 6.8181396e-39
-1.1603765 0.69950283 2.2372608 6.1727674e-39
-1.1678621 0.70956761 2.2694516 5.8047079e-39
-1.1712912 0.71730834 2.2942092 6.0816564e-39
-1.1762376 0.72610968 2.3223591 6.7277516e-39
-1.1824083 0.73581523 2.3534009 7.7437056e-39
-1.1761475 0.73787957 2.3600035 8.9429691e-39
-1.1731519 0.74204314 2.3733201 1.0233345e-38
-1.1704912 0.74648929 2.3875403 1.0970548e-38
-1.1718882 0.75361907 2.4103441 1.0970907e-38
-1.1820513 0.76655364 2.4517133 1.0787233e-38
-1.1683176 0.76407927 2.4437995 1.0602126e-38
-1.1843964 0.78122693 2.4986439 1.0601769e-38
-1.1789246 0.78433323 2.5085788 1.0509216e-38
-1.1699064 0.78511363 2.5110748 1.0785803e-38
-1.1635745 0.78772634 2.5194311 8.9440607e-39
-1.1552715 0.78903919 2.5236301 3.6878266e-39
-1.1480908 0.79114896 2.5303779 5.2497377e-39
-1.1401075 0.79273868 2.5354624 9.859159e-39
-1.1309536 0.79353589 2.5380123 1.3275082e-38
-1.1217811 0.79433477 2.5405674 1.3367996e-38
-1.1044285 0.78930229 2.5244718 1.3644226e-38
-1.1063569 0.79808414 2.5525594 1.3736423e-38
-1.0763999 0.78381377 2.5069175 1.3736782e-38
-1.0616555 0.78045422 2.4961724 1.3644586e-38
-1.0659341 0.79114896 2.5303779 1.3920813e-38
-1.042425 0.78122693 2.4986439 1.4013007e-38
-1.0319437 0.7809692 2.4978194 1.3828973e-38
-1.0323648 0.78903919 2.5236301 1.4013362e-38
-1.0324471 0.79700929 2.5491214 1.4013007e-38
-1.0142471 0.79088461 2.5295324 1.392153e-38
-1.0059975 0.79247326 2.5346136 1.4289593e-38
-0.99238837 0.78982902 2.5261564 1.4381791e-38
-0.98443526 0.79167813 2.5320704 1.4382154e-38
-0.97841275 0.79513526 2.5431275 1.419848e-38
-0.97266555 0.7988922 2.5551436 1.4105922e-38
-0.96719182 0.80295712 2.5681448 1.4289954e-38
-0.96264666 0.80788994 2.5839217 1.4474704e-38
-0.95804536 0.81288379 2.5998938 1.419848e-38
-0.95239955 0.81709272 2.6133554 1.3828621e-38
-0.94244379 0.81765723 2.6151609 1.0416664e-38
-0.93473601 0.82020706 2.6233163 9.9589119e-39
-0.92698002 0.82277286 2.6315227 1.4199198e-38
-0.92110229 0.82708514 2.6453147 1.4750932e-38
-0.91709542 0.83319873 2.6648684 1.4750934e-38
-0.91270524 0.83910584 2.6837614 1.4658018e-38
-0.90825236 0.8450973 2.7029243 1.4658381e-38
-0.90503716 0.85240102 2.726284 1.4566181e-38
-0.89882749 0.85703027 2.7410901 1.438251e-38
-0.88899016 0.85827327 2.7450655 1.4474704e-38
-0.86840326 0.84903789 2.7155275 1.4290316e-38
-0.87752628 0.86898589 2.7793286 1.4290318e-38
-0.84575444 0.84842926 2.7135808 1.4382514e-38
-0.86867893 0.88292336 2.8239055 1.4382869e-38
-0.86626518 0.89224184 2.8537092 1.4382148e-38
