# .PCD v0.7 - Point Cloud Data file format
VERSION 0.7
FIELDS x y z rgb
SIZE 4 4 4 4
TYPE F F F F
COUNT 1 1 1 1
WIDTH 1030
HEIGHT 1
VIEWPOINT 0 0 0 1 0 0 0
POINTS 1030
DATA ascii
-1.0130339 0.85953861 4.3188195 1.2998135e-38
-1.0046757 0.86745608 4.3586016 1.2721904e-38
-0.99040735 0.87046289 4.3737092 1.2997771e-38
-0.9704141 0.86845607 4.363626 1.3551306e-38
-0.95601028 0.8714698 4.3787684 1.3919367e-38
-0.93878192 0.87197411 4.3813024 1.3734968e-38
-0.8895967 0.84224218 4.2319121 1.4379982e-38
-0.87831283 0.84792978 4.2604899 1.4379982e-38
-0.85908771 0.84602541 4.2509212 1.3550579e-38
-0.85333437 0.85758179 4.3089871 1.3182159e-38
-0.83252943 0.85417873 4.2918882 1.4288511e-38
-0.81789261 0.85709399 4.3065362 1.4473262e-38
-0.80962515 0.86695701 4.3560939 1.4289231e-38
-0.8110795 0.88790292 4.461338 1.410556e-38
-0.49058521 0.54931509 2.7600768 1.4658372e-38
-0.47147673 0.54025501 2.7145538 1.5027509e-38
-0.46112099 0.54103094 2.7184527 1.5119702e-38
-0.44340122 0.53299302 2.6780653 1.5395935e-38
-0.43299171 0.5335592 2.6809103 1.511935e-38
-0.42166322 0.53299302 2.6780653 1.6965791e-38
-0.40977958 0.53167653 2.6714506 1.8625324e-38
-0.39823481 0.53074014 2.6667457 1.871643e-38
-0.38483626 0.52721179 2.6490171 1.9361438e-38
-0.37343183 0.52629101 2.6443908 1.991462e-38
-0.36181489 0.52500743 2.6379411 2.037704e-38
-0.34916216 0.52209675 2.6233163 2.1206797e-38
-0.33746299 0.52047366 2.6151609 2.2312065e-38
-0.32360762 0.51531166 2.5892239 2.2866678e-38
-0.31299216 0.51513547 2.5883386 2.20398e-38
-0.30166227 0.51373041 2.5812788 2.1763575e-38
-0.29059163 0.5126816 2.576009 2.1579545e-38
-0.28013682 0.5126816 2.576009 2.1578828e-38
-0.26840347 0.51025099 2.5637965 2.111534e-38
-0.25773638 0.50973314 2.5611944 2.0006107e-38
-0.24767688 0.51042384 2.5646648 1.889722e-38
-0.23759004 0.51111645 2.5681448 1.8711732e-38
-0.22693624 0.51059681 2.5655339 1.7514972e-38
-0.21681784 0.51128989 2.5690162 1.9641985e-38
-0.20681249 0.51233298 2.5742574 2.3326215e-38
-0.19663222 0.51303071 2.5777633 2.3325854e-38
-0.18623371 0.51320547 2.5786412 1.9733829e-38
-0.17588805 0.51355529 2.580399 1.3005349e-38
-0.16643652 0.51672536 2.5963275 1.2176674e-38
-0.15638192 0.51832515 2.6043656 1.1255808e-38
-0.14723013 0.52336615 2.6296947 6.1864987e-39
-0.13660491 0.52354801 2.6306083 4.7095862e-39
-0.12592851 0.52354801 2.6306083 4.245371e-39
-0.11642528 0.52887726 2.6573853 3.9669681e-39
-0.10530754 0.52721179 2.6490171 1.6690656e-38
-0.094128281 0.52482456 2.6370223 2.1484826e-38
-0.083454922 0.52500743 2.6379411 2.065435e-38
-0.025518086 0.18415684 0.92531055 1.7423892e-38
-0.021786654 0.18435962 0.92632949 5.9919957e-39
-0.018027121 0.18435962 0.92632949 4.8849194e-39
-0.014276324 0.18447249 0.92689651 4.7001652e-39
-0.010526088 0.18467598 0.92791897 4.6998051e-39
-0.006719749 0.1835735 0.92237949 3.6863763e-39
-0.0029621732 0.18270537 0.91801757 3.3172364e-39
0.0007650163 0.18303829 0.91969031 3.2250408e-39
0.0043066498 0.1752671 0.88064331 3.1328451e-39
0.0078853499 0.1753691 0.88115579 2.9484553e-39
0.011419015 0.17471837 0.87788624 2.8562597e-39
0.015001073 0.17494151 0.8790074 2.8558995e-39
0.018527675 0.17455645 0.87707263 2.9480966e-39
0.022074511 0.17445539 0.87656486 2.6718684e-39
0.025709465 0.17498215 0.87921154 2.6722271e-39
0.029230244 0.17469811 0.87778443 2.6718726e-39
0.032754779 0.1744958 0.87676787 2.5803944e-39
0.036145724 0.17369121 0.87272519 2.6722299e-39
0.039922405 0.17471837 0.87788624 2.5800329e-39
0.043733817 0.17571676 0.88290274 2.7637053e-39
0.047372345 0.17592192 0.88393354 2.6718698e-39
0.051103007 0.17641625 0.88641739 2.6718684e-39
0.05484182 0.17687185 0.88870651 2.6722285e-39
0.058828462 0.17802118 0.89448142 2.6725859e-39
0.062267464 0.177476 0.89174217 2.7644256e-39
0.065554604 0.17658165 0.8872484 2.764427e-39
0.069155522 0.17658165 0.8872484 2.8562611e-39
0.073073298 0.17735067 0.89111239 2.8562625e-39
0.077125639 0.17835833 0.8961755 2.8566212e-39
0.08091604 0.17869678 0.89787602 2.9488154e-39
0.084081449 0.17768529 0.89279372 3.0402908e-39
0.087508805 0.17728806 0.89079785 2.9480951e-39
0.091913603 0.17882402 0.8985154 3.039932e-39
0.094951726 0.17768529 0.89279372 2.9484539e-39
0.098354787 0.17728806 0.89079785 2.8566184e-39
0.10369036 0.18027893 0.90582567 2.8566198e-39
0.10787001 0.18112408 0.91007221 2.8562625e-39
0.11130934 0.18071134 0.90799844 2.8562611e-39
0.11480172 0.18040843 0.90647638 3.0402922e-39
0.11842396 0.18032207 0.90604246 3.1324864e-39
0.12252639 0.18095008 0.90919787 3.1328465e-39
0.12614065 0.18084149 0.90865231 2.9488154e-39
0.13003132 0.18112408 0.91007221 2.7644256e-39
0.13490871 0.18272753 0.91812891 2.7647843e-39
0.16204138 0.1882758 0.9460066 2.5800343e-39
0.16690266 0.18943566 0.95183438 2.5803944e-39
0.17020933 0.18881845 0.94873315 2.4878401e-39
0.17382018 0.18855853 0.94742721 2.2116133e-39
0.17728819 0.18815824 0.94541591 1.1974642e-39
0.18107995 0.18811126 0.94517988 1.10527e-39
0.1846624 0.18785329 0.94388366 1.2896612e-39
0.18807112 0.18743268 0.9417702 1.381854e-39
0.19122727 0.18678211 0.93850142 1.381854e-39
0.19402602 0.18581468 0.93364048 1.4740525e-39
0.19672354 0.18478921 0.92848796 1.4740525e-39
0.19847158 0.18292719 0.91913205 1.4740525e-39
0.2005946 0.18147311 0.91182595 1.5662467e-39
0.20471442 0.18184543 0.91369671 1.6580822e-39
0.20872496 0.18210916 0.91502184 1.750638e-39
0.21292756 0.18252832 0.91712791 2.0265046e-39
0.21529357 0.18138573 0.91138685 2.119059e-39
0.2192564 0.18160434 0.9124853 2.119059e-39
0.20186567 0.16442287 0.82615572 2.119059e-39
0.21111625 0.1691481 0.84989792 2.2112546e-39
0.2168785 0.17097144 0.85905945 2.3030915e-39
0.2205402 0.17110734 0.85974228 2.3030929e-39
0.22600569 0.17261671 0.86732626 2.3034502e-39
0.24457157 0.18393204 0.92418098 2.3030901e-39
0.24705574 0.18299383 0.91946691 2.3030901e-39
0.24819514 0.18110231 0.90996283 2.2108944e-39
0.25152546 0.18084149 0.90865231 2.1190604e-39
0.25632074 0.18162623 0.91259533 2.2108987e-39
0.25927445 0.18110231 0.90996283 2.2108973e-39
0.26296756 0.18110231 0.90996283 2.2105371e-39
0.26666069 0.18110231 0.90996283 2.2112546e-39
0.27107057 0.18158245 0.91237539 2.3030929e-39
0.27127546 0.17927082 0.90076035 2.211256e-39
0.27102941 0.17672662 0.88797688 2.2112546e-39
0.27402264 0.17633367 0.88600242 2.2112574e-39
0.27552265 0.17500247 0.87931371 2.2112574e-39
0.27825114 0.1744756 0.87666637 2.2116147e-39
0.28109303 0.17403226 0.87443876 2.3034502e-39
0.28474063 0.17409258 0.87474185 2.3956458e-39
0.2885575 0.17425364 0.87555116 2.671874e-39
0.29251689 0.1744958 0.87676787 3.0406551e-39
0.29665932 0.17484002 0.87849742 3.1324878e-39
0.3009581 0.1752671 0.88064331 3.2246834e-39
0.30506447 0.17557344 0.88218254 3.7774957e-39
0.30882478 0.17567579 0.88269687 4.3310268e-39
0.31273538 0.17586032 0.88362402 4.6072536e-39
0.31687635 0.17616874 0.88517374 4.6998093e-39
0.32110709 0.17651959 0.8869366 5.3455375e-39
0.32520199 0.17678884 0.88828945 6.728109e-39
0.32961929 0.1772255 0.8904835 8.4787399e-39
0.33453181 0.17791608 0.89395332 8.6624123e-39
0.34020868 0.17899397 0.8993693 7.5564305e-39
0.3445136 0.17933483 0.90108198 6.266056e-39
0.34991986 0.18023579 0.90560895 5.5299287e-39
0.35757306 0.18226336 0.91579664 6.2674896e-39
0.36933142 0.18632017 0.93618041 8.1110392e-39
0.8637737 0.35237867 1.7705544 1.1895041e-38
0.8594529 0.34487784 1.7328658 1.3828984e-38
0.85301405 0.33951584 1.705924 1.2071518e-38
0.87793946 0.34662324 1.7416358 3.4065776e-39
0.89823246 0.35180277 1.7676607 4.8834971e-39
0.89105153 0.34622502 1.7396349 8.1982028e-39
0.89625841 0.34551048 1.7360446 1.7484758e-39
0.88265955 0.337614 1.6963681 6.4501628e-40
1.1488998 0.4294019 2.1575637 6.4465475e-40
1.1008716 0.40833908 2.0517318 7.3721051e-40
1.113423 0.40989426 2.059546 7.3721051e-40
1.1319433 0.41360727 2.0782022 7.3720911e-40
1.1243291 0.40778652 2.0489554 7.3720911e-40
-1.4820344 0.51215786 2.5219491 5.8997846e-39
-1.4548373 0.50625551 2.4928846 1.0789033e-38
-1.4380906 0.50393248 2.4814458 6.2732573e-39
-1.3765837 0.48578131 2.3920665 2.488196e-39
-1.3617126 0.48394644 2.3830314 4.7884036e-39
-1.3503408 0.48333791 2.3800349 1.0781478e-38
-1.3298122 0.47941935 2.3607392 1.2817706e-38
-1.3194082 0.47912055 2.359268 7.7498307e-39
-1.3073885 0.47822639 2.3548648 3.5030696e-39
-1.2954137 0.47733557 2.3504784 4.973155e-39
-1.2799138 0.47512296 2.3395832 9.3048979e-39
-1.2731726 0.47615296 2.344655 1.8248947e-38
-1.2660092 0.47703937 2.3490198 2.018974e-38
-1.2643212 0.48001808 2.3636875 1.6226415e-38
-1.2718019 0.48654997 2.3958516 1.419775e-38
-1.2689048 0.48918164 2.4088104 1.4935311e-38
-1.260733 0.48980501 2.4118798 1.49382e-38
-1.2634217 0.49469045 2.4359365 9.5933762e-39
-1.2600219 0.49725029 2.4485416 4.1484306e-39
-1.252515 0.49821708 2.4533021 6.5390332e-39
-1.2449787 0.49918762 2.4580815 1.1887449e-38
-1.2326013 0.49821708 2.4533021 1.9266335e-38
-1.2167305 0.49580711 2.4414353 2.1389015e-38
-1.2091614 0.4967683 2.4461682 2.2311703e-38
-1.198459 0.4964475 2.4445887 2.3049268e-38
-1.1862395 0.49548757 2.4398618 2.3417689e-38
-1.1828173 0.49821708 2.4533021 2.3418047e-38
-1.1949316 0.50759256 2.4994688 2.3509884e-38
-1.2173409 0.52153933 2.5681448 2.341769e-38
-1.2905312 0.55767059 2.7460613 2.3417331e-38
-1.4801795 0.64519423 3.1770418 2.3325494e-38
-1.6031826 0.70495087 3.4712934 2.3325494e-38
-1.6309716 0.72352844 3.562772 2.3325854e-38
-1.6871748 0.75515616 3.7185121 2.3325853e-38
-1.7141799 0.77416813 3.8121302 2.2956349e-38
-1.7142452 0.78124893 3.8469973 2.1022394e-38
-1.6994957 0.78164613 3.848953 1.7700829e-38
-1.6924789 0.78564024 3.8686206 1.2354566e-38
-1.6836606 0.78886503 3.8845 1.060176e-38
-1.675633 0.7925247 3.9025211 1.3825361e-38
-1.6683944 0.79663104 3.9227414 1.8162887e-38
-1.6619462 0.80119747 3.9452271 1.2911341e-38
-1.6510967 0.80371034 3.9576011 1.2076537e-38
-1.6462218 0.80920941 3.9846795 1.1524803e-38
-1.6334888 0.8109166 3.9930859 1.1984342e-38
-1.6232758 0.81392157 4.0078831 1.1155661e-38
-1.62247 0.82175195 4.0464406 1.0415582e-38
-1.6322187 0.83514279 4.1123796 1.1062384e-38
-1.6532451 0.85464031 4.2083883 1.1985781e-38
-1.65549 0.86473447 4.2580938 1.2814104e-38
-1.6682329 0.88058299 4.3361344 1.3274001e-38
-1.6659006 0.88872713 4.3762374 1.3735337e-38
-1.6782116 0.90494287 4.4560862 1.4379985e-38
-1.6829085 0.9173615 4.5172381 1.465729e-38
-1.6796075 0.92564595 4.5580316 1.5026433e-38
-1.679307 0.9357869 4.6079674 1.5119706e-38
-1.6789999 0.94615257 4.6590099 1.5211902e-38
-1.6913154 0.96394855 4.7466402 1.5212262e-38
-1.7051928 0.98305494 4.840723 1.4475422e-38
-1.710704 0.99772739 4.9129725 1.4199198e-38
-1.7129968 1.0108467 4.9775743 1.3923328e-38
-1.0969659 0.78644395 3.8725784 1.3184688e-38
-1.0851343 0.78926998 3.8864942 1.3368003e-38
-1.0754336 0.79375213 3.9085653 1.3275085e-38
-1.0706251 0.80203331 3.9493432 1.3091054e-38
-1.0685315 0.81263101 4.0015278 1.3090693e-38
-1.0646712 0.82219136 4.0486045 1.3459476e-38
-1.057286 0.82928687 4.0835443 1.3275083e-38
-1.045223 0.8328808 4.1012411 1.262756e-38
-1.0319321 0.83559668 4.1146145 9.8624087e-39
-1.0218973 0.84108198 4.1416249 1.2722982e-38
-1.010617 0.84570843 4.1644063 1.4105198e-38
-1.0030955 0.85369122 4.2037148 1.3920086e-38
-0.98988205 0.85702223 4.2201176 1.3828249e-38
-0.97547334 0.8594175 4.2319121 1.465729e-38
-0.95138466 0.85321748 4.2013822 1.4842043e-38
-0.92407709 0.84385175 4.1552639 1.49346e-38
-0.89833796 0.83559668 4.1146145 1.5303023e-38
-0.86656791 0.82131296 4.0442791 1.5211545e-38
-0.84294939 0.81435269 4.0100055 1.5671805e-38
-0.82275265 0.81048912 3.9909809 1.5210823e-38
-0.81514925 0.81912512 4.0335059 1.3275435e-38
-0.79877919 0.81912512 4.0335059 1.4749855e-38
-0.78533792 0.82219136 4.0486045 1.5581054e-38
-0.7755422 0.82928687 4.0835443 1.5857641e-38
-0.77914095 0.85132772 4.1920767 1.5765804e-38
-0.49707544 0.55525386 2.7341607 1.5581415e-38
-0.4914811 0.56154048 2.7651172 1.6042035e-38
-0.47266304 0.55265921 2.7213843 1.6319698e-38
-0.46012968 0.55087709 2.7126086 1.6227506e-38
-0.44371516 0.54424703 2.6799614 1.6596291e-38
-0.43314511 0.54463261 2.68186 1.6872159e-38
-0.42166322 0.54386199 2.6780653 1.7611525e-38
-0.40963504 0.54232728 2.6705081 1.8349454e-38
-0.39809459 0.54137248 2.6658065 1.7887394e-38
-0.38470164 0.53777468 2.6480906 1.595452e-38
-0.37304094 0.53646123 2.6416228 1.705943e-38
-0.36118564 0.53478187 2.6333532 1.8165063e-38
-0.34795651 0.530904 2.6142578 1.8349817e-38
-0.33572349 0.52834982 2.6016808 1.9178863e-38
-0.32206559 0.52331448 2.5768859 2.286632e-38
-0.31107783 0.52242535 2.5725079 2.2683006e-38
-0.29972067 0.5208326 2.5646648 2.2498973e-38
-0.2889204 0.52012783 2.5611944 2.2774481e-38
-0.27985117 0.52260298 2.5733824 2.3050348e-38
-0.26722705 0.5183742 2.5525594 2.3049988e-38
-0.25704074 0.51872396 2.5542817 2.3325853e-38
-0.24734172 0.52012783 2.5611944 2.3325852e-38
-0.23710747 0.52047998 2.5629284 2.3234016e-38
-0.22662905 0.52030385 2.5620611 2.2497897e-38
-0.21652395 0.52100909 2.5655339 2.1302597e-38
-0.20674218 0.52260298 2.5733824 2.3325856e-38
-0.19649842 0.52313638 2.576009 2.341769e-38
-0.18617031 0.52349263 2.5777633 2.3142183e-38
-0.17582813 0.52384937 2.5795197 2.2958513e-38
-0.16626546 0.52672076 2.5936592 2.2682647e-38
-0.15659739 0.52962381 2.607954 2.2498976e-38
-0.14723013 0.53403884 2.6296947 2.2131276e-38
-0.1366999 0.53459591 2.6324377 2.1853617e-38
-0.12654409 0.53683585 2.6434674 2.1667067e-38
-0.11720692 0.54328549 2.6752264 2.1020613e-38
-0.10616188 0.54232728 2.6705081 2.2864878e-38
-0.094988503 0.54042107 2.6611216 2.323402e-38
-0.084544875 0.54271019 2.6723936 2.3049266e-38
-0.025615137 0.1886269 0.92882967 2.0373069e-38
-0.021858865 0.18874268 0.92939979 6.2685854e-39
-0.018084653 0.18871951 0.92928571 5.2533404e-39
-0.014309609 0.1886732 0.92905766 4.883839e-39
-0.010541593 0.18871951 0.92928571 4.7912819e-39
-0.006727125 0.18752261 0.923392 3.8704088e-39
-0.0029646896 0.18658955 0.91879743 3.5012675e-39
0.00076613313 0.18704353 0.92103297 3.4090719e-39
0.0043016463 0.17863342 0.87962019 3.1332053e-39
0.0078743519 0.17869571 0.87992686 2.9484567e-39
0.011403147 0.17803358 0.87666637 2.9488154e-39
0.014994109 0.17842612 0.87859935 3.1328465e-39
0.01851695 0.17801295 0.87656486 3.2246834e-39
0.022061739 0.17790996 0.87605774 2.9484539e-39
0.025688583 0.17840542 0.87849742 2.7640654e-39
0.029196395 0.17805418 0.87676787 2.7640668e-39
0.032735825 0.17795114 0.87626052 2.7640668e-39
0.036025297 0.17664269 0.86981744 2.6722285e-39
0.039978035 0.17852971 0.8791095 2.764064e-39
0.043779768 0.17948844 0.88383037 2.764064e-39
0.047477666 0.17990848 0.88589877 2.7640654e-39
0.051313285 0.18075451 0.89006478 2.6722285e-39
0.054990284 0.18096727 0.89111239 2.6722285e-39
0.058939882 0.1819955 0.8961755 2.6725873e-39
0.062792584 0.18262239 0.89926249 2.7647843e-39
0.06593322 0.18122323 0.89237279 2.8562625e-39
0.069554932 0.18122323 0.89237279 2.8566198e-39
0.073366903 0.18169439 0.89469284 2.9484567e-39
0.077299491 0.18240573 0.89819562 3.0402922e-39
0.081224293 0.18303546 0.9012965 3.0402922e-39
0.08483173 0.18292658 0.90076035 2.9484567e-39
0.087601572 0.18109515 0.89174217 3.0402922e-39
0.091446929 0.18154421 0.89395332 2.9484553e-39
0.094461598 0.18037282 0.8881852 3.0402908e-39
0.098216109 0.18064833 0.88954186 3.0402922e-39
0.1031719 0.18303546 0.9012965 2.9484553e-39
0.10755971 0.18428597 0.90745425 3.0402922e-39
0.11112276 0.1840874 0.90647638 2.9491741e-39
0.11466443 0.18386725 0.90539235 3.1328493e-39
0.11833899 0.18386725 0.90539235 3.0406523e-39
0.12237942 0.1844186 0.90810734 3.1328451e-39
0.12598944 0.18430807 0.90756303 2.9484539e-39
0.129922 0.18466225 0.90930706 2.6722299e-39
0.13505612 0.1866575 0.91913205 2.8569785e-39
0.16301914 0.19327441 0.95171475 2.6718712e-39
0.16774625 0.19427571 0.95664531 2.579677e-39
0.17134735 0.19395709 0.9550764 2.3034502e-39
0.17493667 0.19363953 0.95351267 1.8424749e-39
0.17826767 0.19305599 0.95063925 1.1056301e-39
0.18210301 0.19303176 0.95051986 1.1974656e-39
0.18537886 0.19242777 0.94754577 1.3818554e-39
0.18870491 0.19189939 0.9449439 1.3814967e-39
0.19189332 0.19125487 0.9417702 1.3818554e-39
0.19414574 0.18972087 0.93421656 1.3818554e-39
0.19653071 0.18837269 0.92757791 1.6577235e-39
0.19777527 0.18600264 0.91590744 1.6577235e-39
0.20032921 0.18492877 0.91061956 1.6584423e-39
0.20429528 0.18517378 0.91182595 1.6584423e-39
0.20834725 0.18548654 0.91336602 1.8431937e-39
0.2123616 0.18575546 0.9146902 2.0272235e-39
0.21521585 0.18501779 0.91105783 2.1190576e-39
0.21936215 0.18539707 0.91292548 2.2108958e-39
0.22357953 0.1858228 0.91502184 2.2112546e-39
0.21233191 0.17359127 0.85479176 2.3030915e-39
0.2168785 0.17445795 0.85905945 2.3034488e-39
0.22081603 0.174815 0.86081761 2.3034502e-39
0.2261093 0.17621753 0.86772388 2.3949284e-39
0.24332406 0.18672551 0.91946691 2.3030901e-39
0.2496327 0.1886732 0.92905766 2.119059e-39
0.24033794 0.17894529 0.88115579 2.211256e-39
0.25125408 0.18433017 0.90767181 2.1190604e-39
0.25561208 0.18481763 0.91007221 2.211256e-39
0.25769484 0.18366957 0.90441895 2.211256e-39
0.26058722 0.18312266 0.90172589 2.394927e-39
0.266085 0.18439649 0.90799844 2.394927e-39
0.26931795 0.1840874 0.90647638 2.3030915e-39
0.2658664 0.17927913 0.88279974 2.3034502e-39
0.27068019 0.18009815 0.88683271 2.3038089e-39
0.27335086 0.17948844 0.88383037 2.3030915e-39
0.27565071 0.17865418 0.87972236 2.3952871e-39
0.27828336 0.17805418 0.87676787 2.3034516e-39
0.28093079 0.17747869 0.87393409 2.4874827e-39
0.28474063 0.17764273 0.87474185 2.4874827e-39
0.2885575 0.17780709 0.87555116 2.4878429e-39
0.29275423 0.17819865 0.87747926 2.7647871e-39
0.29693496 0.17857118 0.87931371 3.2254051e-39
0.30120334 0.17898695 0.88136095 3.1328493e-39
0.30520675 0.17923734 0.88259393 3.1328493e-39
0.30896887 0.17934187 0.88310868 3.9629687e-39
0.31291798 0.17955132 0.88414001 4.6079766e-39
0.31698751 0.17982432 0.88548428 4.6079752e-39
0.32110709 0.18011925 0.8869366 4.8849194e-39
0.32524016 0.18041515 0.88839364 6.2667721e-39
0.32965809 0.18086083 0.89058828 7.4645922e-39
0.33441335 0.18147992 0.89363676 8.5705768e-39
0.33972439 0.18238409 0.89808905 8.8471637e-39
0.34365466 0.18253566 0.89883542 8.4783826e-39
0.34925142 0.18355992 0.90387905 7.5575067e-39
0.35636607 0.18535237 0.91270536 7.0961698e-39
0.36896643 0.1899318 0.93525517 8.2954333e-39
0.8637737 0.35956451 1.7705544 1.2816273e-38
0.84766597 0.34426734 1.6952286 1.032161e-38
0.86973631 0.35038695 1.7253625 2.946684e-39
0.8868441 0.35442552 1.7452492 4.6076347e-39
0.88213289 0.3497493 1.7222227 8.382601e-39
0.88892037 0.34966975 1.721831 1.9325083e-39
0.87950647 0.34326813 1.6903083 6.4501768e-40
1.158474 0.44180974 2.1755433 5.5281785e-40
1.1092889 0.41985196 2.0674198 5.5281785e-40
1.1179849 0.41996664 2.0679843 7.3720911e-40
1.1375641 0.42413735 2.0885215 6.4537361e-40
1.1273803 0.41723144 2.0545158 6.4501348e-40
-1.4850025 0.52343941 2.5269995 7.1901647e-39
-1.4596435 0.5180788 2.5011201 1.1342208e-38
-1.4423453 0.51552415 2.4887872 5.9037531e-39
-1.3787619 0.49627358 2.3958516 2.4874757e-39
-1.3629997 0.4940846 2.3852837 5.5256071e-39
-1.3503408 0.49299735 2.3800349 1.1795986e-38
-1.3298122 0.48900047 2.3607392 1.281806e-38
-1.3194082 0.48869571 2.359268 7.6576267e-39
-1.3065758 0.48748043 2.3534009 3.8711262e-39
-1.293406 0.48612043 2.3468354 5.250102e-39
-1.2779392 0.48387057 2.3359737 9.4892891e-39
-1.2715974 0.4850679 2.341754 1.8524459e-38
-1.2644399 0.48596981 2.3461082 2.0557092e-38
-1.2615641 0.48854348 2.3585329 1.7148376e-38
-1.2693918 0.49533308 2.3913109 1.5949829e-38
-1.2676947 0.49848205 2.4065132 1.6963979e-38
-1.261939 0.50007159 2.4141872 1.742604e-38
-1.2662736 0.50571573 2.4414353 1.5030756e-38
-1.2632904 0.50850344 2.4548934 7.1901829e-39
-1.2561784 0.50966024 2.4604781 4.6054613e-39
-1.2502557 0.51132202 2.4685004 8.6566474e-39
-1.239429 0.51098877 2.4668918 1.7416317e-38
-1.2238343 0.50866836 2.4556894 2.2770507e-38
-1.2162348 0.50966024 2.4604781 2.3418047e-38
-1.206641 0.50982594 2.461278 2.3509884e-38
-1.196263 0.50966024 2.4604781 2.3509886e-38
-1.1944288 0.51316249 2.4773858 2.3509886e-38
-1.2008785 0.52031338 2.5119081 2.3509886e-38
-1.2132255 0.53016382 2.5594628 2.3509886e-38
-1.2453604 0.54890603 2.6499443 2.341769e-38
-1.4563451 0.64749157 3.1258838 2.341769e-38
-1.5864525 0.71153563 3.4350684 2.3325136e-38
-1.6263794 0.73591018 3.5527408 2.2771965e-38
-1.6723894 0.76349783 3.6859255 2.1298265e-38
-1.7004801 0.78332895 3.7816637 1.843768e-38
-1.7064414 0.79323447 3.8294845 1.466089e-38
-1.6960466 0.79564917 3.8411419 1.2907011e-38
-1.6890266 0.79970658 3.8607297 1.069324e-38
-1.6802123 0.80298239 3.8765442 1.1246771e-38
-1.6704665 0.80587077 3.8904886 1.3919e-38
-1.6606505 0.80878007 3.9045336 1.6873948e-38
-1.6533306 0.81297278 3.9247749 1.1713521e-38
-1.6442207 0.81635845 3.9411197 1.2169452e-38
-1.6393193 0.82192063 3.967972 1.1891789e-38
-1.6249185 0.82278305 3.9721358 1.0877275e-38
-1.6155785 0.82625109 3.9888783 1.0694678e-38
-1.6121303 0.83283299 4.0206537 1.2259852e-38
-1.6199001 0.84540409 4.0813427 1.3182519e-38
-1.6341692 0.86166185 4.1598301 1.3552023e-38
-1.6379863 0.87269032 4.2130723 1.3644941e-38
-1.6568457 0.89205039 4.3065362 1.428959e-38
-1.6639769 0.9054414 4.3711839 1.4842046e-38
-1.6713256 0.91924065 4.4378023 1.5026797e-38
-1.6669946 0.92684668 4.4745216 1.5119712e-38
-1.666564 0.93681276 4.522635 1.5488136e-38
-1.6641142 0.94585317 4.5662789 1.5489215e-38
-1.6717982 0.96092188 4.6390262 1.5673606e-38
-1.6870846 0.9807533 4.734766 1.5857278e-38
-1.7172707 1.0098033 4.87501 1.5581052e-38
-1.7207538 1.0236453 4.9418349 1.4844207e-38
-1.1047715 0.79645735 3.8450437 1.3922251e-38
-1.0858574 0.79403776 3.8333623 1.3645662e-38
-1.0741066 0.79686207 3.8469973 1.3460911e-38
-1.0633563 0.80052298 3.8646712 1.3460555e-38
-1.0568426 0.80753064 3.8985019 1.3828617e-38
-1.0502138 0.8146621 3.9329302 1.3276164e-38
-1.0473093 0.82494718 3.9825833 1.3552392e-38
-1.0371473 0.82974845 4.0057621 1.2996343e-38
-1.0257745 0.83371854 4.0249286 9.4950611e-39
-1.0137507 0.8372795 4.04212 1.2171604e-38
-1.0043163 0.84313148 4.0703712 1.4013723e-38
-0.9958275 0.8499862 4.1034636 1.4013367e-38
-0.98450959 0.85461831 4.1258259 1.3644225e-38
-0.96829247 0.85508424 4.1280756 1.4104487e-38
-0.94740593 0.85137057 4.110147 1.4289597e-38
-0.92270994 0.84403902 4.0747528 1.4658019e-38
-0.8965221 0.83505034 4.0313582 1.5026442e-38
-0.86951172 0.82494718 3.9825833 1.4843485e-38
-0.84534401 0.81720924 3.9452271 1.5119712e-38
-0.82204986 0.81003332 3.910584 1.5303386e-38
-0.80742979 0.8112905 3.9166532 1.3552025e-38
-0.79523659 0.81508553 3.9349744 1.3460186e-38
-0.77724653 0.81297278 3.9247749 1.4935685e-38
-0.76848871 0.82063031 3.9617429 1.4936048e-38
-0.76157588 0.83062738 4.0100055 1.4844212e-38
-0.76267129 0.8499862 4.1034636 1.5305188e-38
-0.49564347 0.56471896 2.726284 1.5765807e-38
-0.49058521 0.57171875 2.7600768 1.6133872e-38
-0.4721539 0.56309676 2.7184527 1.6226785e-38
-0.4581598 0.55948073 2.7009957 1.6503375e-38
-0.44355813 0.55492729 2.679013 1.6595216e-38
-0.43268529 0.55492729 2.679013 1.6687047e-38
-0.42106745 0.55394721 2.6742814 1.6873597e-38
-0.40905789 0.55238622 2.6667457 1.7888112e-38
-0.39767453 0.55160904 2.6629937 1.7520411e-38
-0.3844327 0.54813862 2.6462393 1.6505184e-38
-0.3727808 0.54680073 2.6397805 1.7057987e-38
-0.36080915 0.54490083 2.6306083 1.7980665e-38
-0.34711748 0.54020822 2.607954 1.8073945e-38
-0.33434474 0.5366956 2.5909963 1.8627849e-38
-0.32119101 0.53232336 2.5698884 2.2131276e-38
-0.30960503 0.53034312 2.5603282 2.2223829e-38
-0.29820541 0.52855563 2.5516989 2.2407141e-38
-0.28843254 0.52962667 2.5568695 2.2498616e-38
-0.28042305 0.53413641 2.5786412 2.259081e-38
-0.26758793 0.52944785 2.5560064 2.2774481e-38
-0.25747508 0.52998465 2.5585978 2.3049988e-38
-0.24767688 0.53124136 2.5646648 2.2958152e-38
-0.23718777 0.53106147 2.5637965 2.2682287e-38
-0.22685936 0.53124136 2.5646648 2.1208253e-38
-0.21689144 0.53232336 2.5698884 2.0747991e-38
-0.20702365 0.53377283 2.5768859 2.323366e-38
-0.19683328 0.53450054 2.580399 2.3325496e-38
-0.18655141 0.53504759 2.5830402 2.3325496e-38
-0.17612816 0.53523022 2.5839217 2.3325494e-38
-0.16637945 0.53761554 2.5954373 2.3325853e-38
-0.15675938 0.54076707 2.610652 2.3417689e-38
-0.14738372 0.54527974 2.6324377 2.3417689e-38
-0.13684264 0.54584914 2.6351864 2.3417689e-38
-0.12738919 0.55122131 2.6611216 2.3417689e-38
-0.11825155 0.55908185 2.6990697 2.3509884e-38
-0.10691614 0.55709577 2.6894817 2.3509886e-38
-0.096103236 0.55769008 2.6923509 2.3509886e-38
-0.085786402 0.56168503 2.711637 2.3509883e-38
-0.025659209 0.19272761 0.93042779 2.0834759e-38
-0.021888424 0.192775 0.93065649 6.0831067e-39
-0.018109104 0.1927513 0.93054211 4.976399e-39
-0.014323671 0.19263291 0.92997062 4.9760375e-39
-0.010555845 0.1927513 0.93054211 4.5154167e-39
-0.0067468742 0.19183175 0.92610288 3.9626058e-39
-0.0029697353 0.19064242 0.92036116 3.6860189e-39
0.00076706626 0.19101395 0.92215478 3.5934632e-39
0.0043041469 0.1823093 0.88013148 3.6860175e-39
0.0078743519 0.18226692 0.87992686 3.594182e-39
0.011411075 0.1817178 0.87727588 3.5938233e-39
0.01499585 0.18201306 0.87870133 3.4094334e-39
0.01851695 0.18157052 0.87656486 3.2246834e-39
0.022079624 0.18161257 0.87676787 3.0410096e-39
0.025682623 0.1819286 0.87829357 3.0406523e-39
0.029179499 0.18150747 0.87626052 2.8566226e-39
0.032716889 0.18140249 0.8757537 2.7644256e-39
0.036079183 0.18044236 0.87111849 2.6725887e-39
0.039908525 0.18178098 0.87758094 2.8566212e-39
0.043733817 0.18288332 0.88290274 2.9484581e-39
0.047433265 0.18333231 0.8850702 3.0402922e-39
0.05128314 0.18425855 0.88954186 2.9480951e-39
0.054938551 0.18441023 0.89027411 2.8566198e-39
0.058842368 0.18532552 0.89469284 2.7647843e-39
0.062718086 0.18605109 0.89819562 2.6722299e-39
0.062430516 0.17502506 0.84496552 2.764064e-39
0.068985745 0.18333231 0.8850702 2.7644242e-39
0.073176652 0.18484496 0.89237279 2.8562597e-39
0.077125639 0.18563265 0.8961755 2.9480951e-39
0.080762789 0.18563265 0.8961755 3.0402922e-39
0.082524389 0.18150747 0.87626052 3.0402922e-39
0.086733222 0.18288332 0.88290274 3.0402922e-39
0.091328301 0.18493214 0.89279372 2.948814e-39
0.094839893 0.18471432 0.89174217 2.9484567e-39
0.099703878 0.18704969 0.90301657 3.0406509e-39
0.10376485 0.18776634 0.90647638 3.1324864e-39
0.10785705 0.18848853 0.90996283 3.224682e-39
0.111443 0.18830746 0.90908873 3.1328479e-39
0.11491179 0.18794638 0.90734547 3.1332067e-39
0.11848067 0.18776634 0.90647638 2.949177e-39
0.12264422 0.18851118 0.91007221 3.0402922e-39
0.12624672 0.18837532 0.90941632 2.9484553e-39
0.13003132 0.18851118 0.91007221 2.7644256e-39
0.13485965 0.19011086 0.917795 2.6725901e-39
0.16355368 0.1977834 0.95483553 2.5800357e-39
0.16827783 0.19878623 0.95967686 2.3038117e-39
0.17221637 0.19883664 0.95992023 2.9499112e-39
0.17617925 0.19891229 0.96028548 3.2250534e-39
0.17978014 0.19858485 0.95870465 1.1974642e-39
0.18357809 0.19848432 0.95821929 1.2896612e-39
0.18689932 0.19788322 0.95531744 1.2900214e-39
0.18965176 0.19671658 0.94968522 1.3822156e-39
0.19326365 0.19647013 0.94849545 1.3818568e-39
0.19479473 0.19415928 0.93733943 1.4736909e-39
0.19793728 0.19351241 0.93421656 1.6580822e-39
0.19820689 0.19013391 0.91790622 1.6580822e-39
0.20071548 0.18898825 0.91237539 1.750638e-39
0.20461564 0.18917063 0.91325581 1.8428364e-39
0.20864931 0.18946774 0.9146902 1.935388e-39
0.2123616 0.18946774 0.9146902 2.0272235e-39
0.21544918 0.18891996 0.91204566 2.119059e-39
0.21952097 0.18923911 0.91358644 2.211256e-39
0.22395848 0.18985769 0.91657275 2.3034488e-39
0.22669041 0.18903382 0.91259533 2.3030901e-39
0.23212901 0.1904572 0.91946691 2.3030915e-39
0.24994345 0.19868548 0.95919055 2.2112546e-39
0.25712657 0.20126085 0.97162354 2.1194191e-39
0.25226399 0.19447228 0.93885052 2.0272235e-39
0.24819514 0.18848853 0.90996283 2.0272249e-39
0.25188825 0.18848853 0.90996283 2.1190618e-39
0.2560738 0.1888517 0.91171616 2.211256e-39
0.25828108 0.18776634 0.90647638 2.3030943e-39
0.25898322 0.18563265 0.8961755 2.211256e-39
0.26503605 0.18734017 0.90441895 2.3030887e-39
0.26360524 0.18378349 0.8872484 2.2112546e-39
0.26561862 0.18269159 0.88197702 2.211256e-39
0.27055344 0.18361135 0.88641739 2.3956458e-39
0.27306396 0.18288332 0.88290274 2.3034502e-39
0.27552265 0.1821399 0.87931371 2.3952871e-39
0.27831557 0.18163361 0.87686944 2.3034516e-39
0.28057453 0.18079601 0.8728258 2.3956458e-39
0.28464195 0.18113011 0.87443876 2.3956458e-39
0.28849077 0.1813186 0.87534869 2.671874e-39
0.29275423 0.18175991 0.87747926 2.9484595e-39
0.29696944 0.18216106 0.87941581 3.5938289e-39
0.30127349 0.18260649 0.88156623 3.4097964e-39
0.30517116 0.18279806 0.88249105 3.3175993e-39
0.30889681 0.18288332 0.88290274 4.4235854e-39
0.31277189 0.1830541 0.88372719 5.6217656e-39
0.3167282 0.18326803 0.88475996 5.7139598e-39
0.32073134 0.18350393 0.88589877 5.9905467e-39
0.32482088 0.18378349 0.8872484 6.8195829e-39
0.32934815 0.18430187 0.88975096 7.5567906e-39
0.33394036 0.18484496 0.89237279 7.8333761e-39
0.33916113 0.18572058 0.89660007 7.7415378e-39
0.34263769 0.18563265 0.8961755 7.9259263e-39
0.34829503 0.18671563 0.90140384 8.294706e-39
0.35516721 0.18842059 0.90963483 7.7411763e-39
0.36783046 0.1931311 0.93237573 8.2950717e-39
0.8650052 0.35544527 1.7159771 2.9470442e-39
0.87574089 0.35698259 1.7233988 3.5956436e-39
0.87516505 0.35392115 1.708619 7.6461192e-39
0.88289654 0.35424092 1.7101628 2.0243452e-39
1.1594735 0.45102805 2.1774204 5.5245912e-40
1.1120219 0.42929772 2.0725131 5.5281785e-40
1.1198202 0.42906281 2.0713792 5.5281785e-40
1.1397649 0.43345067 2.0925624 6.4537361e-40
1.1255476 0.42487797 2.0511761 6.4501348e-40
-1.4894769 0.53530335 2.5346136 8.3887107e-39
-1.465453 0.53033209 2.5110748 1.1434766e-38
-1.4475797 0.52753258 2.4978194 5.1658307e-39
-1.3831389 0.50760359 2.4034574 2.6715069e-39
-1.3642892 0.50424194 2.3875403 6.4475606e-39
-1.3499165 0.50249881 2.3792868 1.2626466e-38
-1.3298122 0.49858162 2.3607392 1.3278682e-38
-1.3194082 0.49827087 2.359268 8.1178846e-39
-1.305764 0.49672297 2.3519387 4.0544371e-39
-1.2914044 0.49487811 2.3432035 5.8036331e-39
-1.276364 0.49274305 2.3330941 9.5818393e-39
-1.2692418 0.49365583 2.3374162 1.8432625e-38
-1.261703 0.49441904 2.3410299 2.0649655e-38
-1.2584279 0.49687731 2.3526697 1.8716423e-38
-1.2665913 0.50392413 2.3860354 1.7978855e-38
-1.266085 0.50760359 2.4034574 1.9084125e-38
-1.260733 0.50938237 2.4118798 2.0467061e-38
-1.2650497 0.51512605 2.4390757 2.0563223e-38
-1.2637002 0.51863486 2.4556894 1.3560312e-38
-1.2549549 0.51914001 2.4580815 4.9810807e-39
-1.249441 0.52100074 2.4668918 5.7107214e-39
-1.2402372 0.52134049 2.4685004 9.8559164e-39
-1.2266194 0.51981509 2.461278 1.8523755e-38
-1.2178179 0.52032256 2.4636807 2.3230415e-38
-1.2097874 0.52117056 2.4676957 2.3417689e-38
-1.19821 0.52049196 2.4644828 2.3509884e-38
-1.1924778 0.52236235 2.4733391 2.3509886e-38
-1.1969073 0.5287537 2.5036016 2.3509886e-38
-1.2075105 0.53800511 2.547406 2.3509884e-38
-1.2184913 0.54758602 2.5927708 2.3325852e-38
-1.2934608 0.58634073 2.7762709 2.268156e-38
-1.5457742 0.70687497 3.3469896 2.157305e-38
-1.6142592 0.74473739 3.5262649 1.8346569e-38
-1.6626756 0.77393574 3.6645164 1.4476505e-38
-1.6828281 0.79038614 3.7424078 1.3828253e-38
-1.6961461 0.80389702 3.8063805 1.3369433e-38
-1.6883373 0.80755109 3.8236823 1.2998848e-38
-1.6838745 0.81288826 3.848953 1.0599967e-38
-1.6742115 0.81579143 3.8626993 1.1614833e-38
-1.6644793 0.81871539 3.8765442 1.4011551e-38
-1.6563792 0.82250577 3.8944912 1.6688468e-38
-1.648204 0.82633138 3.912605 1.2356007e-38
-1.6382511 0.82933152 3.9268105 1.0603921e-38
-1.6341804 0.83539772 3.9555333 1.0601406e-38
-1.6198194 0.83627152 3.959671 1.1708475e-38
-1.6104873 0.83978528 3.9763081 1.3091764e-38
-1.6061594 0.84600592 4.0057621 1.3367994e-38
-1.6138103 0.85872781 4.0659995 1.3736054e-38
-1.6368674 0.87999517 4.1666985 1.4104484e-38
-1.6462312 0.89426804 4.2342792 1.4381429e-38
-1.6606241 0.91160274 4.3163571 1.4658732e-38
-1.6572789 0.9194659 4.3535886 1.511899e-38
-1.6683917 0.9356063 4.4300122 1.5395579e-38
-1.6562271 0.93890262 4.4456201 1.5488133e-38
-1.6527418 0.94724596 4.4851251 1.5672164e-38
-1.6501802 0.95631051 4.5280447 1.5856918e-38
-1.6595954 0.97259808 4.6051645 1.5856918e-38
-1.6818255 0.9968524 4.7200069 1.5672884e-38
-1.748801 1.0484926 4.9645185 1.5488497e-38
-1.4219633 1.0164979 4.8130264 1.4105926e-38
-1.1243739 0.81495982 3.8587618 1.4197765e-38
-1.0964189 0.80592299 3.8159733 1.4106645e-38
-1.0792996 0.80470622 3.8102117 1.4013726e-38
-1.0681362 0.8079592 3.8256145 1.3737857e-38
-1.0574188 0.81165034 3.8430917 1.3553469e-38
-1.0498151 0.81787783 3.8725784 1.3828973e-38
-1.042631 0.82462674 3.9045336 1.3276161e-38
-1.0347896 0.8310557 3.9349744 1.2813393e-38
-1.0246776 0.83583438 3.9576011 9.219549e-39
-1.0123199 0.83890408 3.9721358 1.1803539e-38
-1.001453 0.84332871 3.9930859 1.3921167e-38
-0.9946903 0.8514117 4.0313582 1.4105201e-38
-0.98462045 0.85688704 4.0572834 1.4105563e-38
-0.97232246 0.86057651 4.0747528 1.41974e-38
-0.95373172 0.85872781 4.0659995 1.4289598e-38
-0.93172544 0.85368454 4.04212 1.4658021e-38
-0.90612853 0.84511161 4.0015278 1.4566545e-38
-0.88104051 0.83670914 3.9617429 1.4659461e-38
-0.8568905 0.82890159 3.9247749 1.5119715e-38
-0.83490229 0.82292908 3.8964956 1.5119711e-38
-0.81698591 0.82081681 3.8864942 1.438179e-38
-0.80244827 0.82208288 3.8924887 1.3276158e-38
-0.78827161 0.82377702 3.9005105 1.5027879e-38
-0.7716462 0.82292908 3.8964956 1.5304112e-38
-0.76210785 0.82976192 3.9288483 1.5304476e-38
-0.75477964 0.83934444 3.974221 1.5212638e-38
-0.75207299 0.85459709 4.0464406 1.5397385e-38
-0.49797463 0.57849175 2.7391067 1.5858362e-38
-0.49112236 0.58355886 2.7630987 1.6226429e-38
-0.4721539 0.5741297 2.7184527 1.6503376e-38
-0.45718119 0.56922436 2.6952264 1.6411184e-38
-0.44434431 0.56680298 2.6837614 1.6779606e-38
-0.43268529 0.56580013 2.679013 1.6779602e-38
-0.42091876 0.56460142 2.6733372 1.6688848e-38
-0.40891385 0.56301099 2.6658065 1.733314e-38
-0.3975347 0.56221914 2.6620572 1.8254e-38
-0.38416415 0.55848801 2.6443908 1.8347646e-38
-0.37239128 0.55693179 2.6370223 1.8256544e-38
-0.36043343 0.5549987 2.6278691 1.8533854e-38
-0.34616354 0.54927903 2.6007869 1.8258702e-38
-0.33320442 0.54534489 2.5821593 1.8721122e-38
-0.32021275 0.54110026 2.5620611 2.2039081e-38
-0.30856153 0.53891176 2.5516989 2.2407141e-38
-0.2975035 0.53764331 2.5456929 2.2314944e-38
-0.28814059 0.5394572 2.5542817 2.2406781e-38
-0.28070989 0.54515892 2.5812788 2.2407138e-38
-0.26749763 0.53963929 2.5551436 2.2774842e-38
-0.25764924 0.54073423 2.5603282 2.2682646e-38
-0.24792883 0.54220116 2.5672739 2.2958513e-38
-0.23710747 0.54128343 2.5629284 2.2682646e-38
-0.22685936 0.54165012 2.5646648 2.0655795e-38
-0.21703878 0.54312199 2.5716341 2.0839823e-38
-0.20716467 0.54460192 2.5786412 2.3325496e-38
-0.19683328 0.54497313 2.580399 2.3325496e-38
-0.18655141 0.54553097 2.5830402 2.3325496e-38
-0.17618831 0.54590344 2.5848041 2.3325494e-38
-0.16632244 0.54796135 2.594548 2.3325494e-38
-0.15681346 0.55155265 2.6115525 2.341733e-38
-0.14738372 0.55596358 2.6324377 2.341733e-38
-0.13679503 0.55635047 2.6342695 2.3325494e-38
-0.1277034 0.56340778 2.6676853 2.3417689e-38
-0.11825155 0.57003605 2.6990697 2.3509884e-38
-0.10668875 0.56680298 2.6837614 2.3509886e-38
-0.096137419 0.56881934 2.6933086 2.3509886e-38
-0.085971154 0.57392365 2.7174768 2.3418049e-38
-0.025671829 0.19660042 0.93088537 1.9082308e-38
-0.021896498 0.19662459 0.93099988 6.3582376e-39
-0.018120239 0.19664878 0.93111438 4.7001694e-39
-0.014339524 0.19662459 0.93099988 4.6076137e-39
-0.010571437 0.19681822 0.93191665 4.2391899e-39
-0.0067642503 0.1960941 0.92848796 4.1466341e-39
-0.0029744359 0.1946854 0.92181796 3.8700472e-39
0.00076856412 0.19513683 0.92395544 3.7774943e-39
0.0043121674 0.18622772 0.88177156 3.6849385e-39
0.0078798467 0.1859678 0.88054091 3.500906e-39
0.011400508 0.18510665 0.87646341 3.0406481e-39
0.014985414 0.18545015 0.87808985 2.8566198e-39
0.018534116 0.18529971 0.87737751 2.8562611e-39
0.022079624 0.18517096 0.87676787 2.9484553e-39
0.025676666 0.18545015 0.87808985 2.9480966e-39
0.029193014 0.18514952 0.87666637 2.9480966e-39
0.032671541 0.18470038 0.87453979 2.9484553e-39
0.036025297 0.18370304 0.86981744 2.9488154e-39
0.039816216 0.18491398 0.87555116 2.8569785e-39
0.043779768 0.18666252 0.88383037 2.8566198e-39
0.047377877 0.18670613 0.88403678 2.9480966e-39
0.051325351 0.18802342 0.89027411 2.9484567e-39
0.055185147 0.18886738 0.89427012 2.9484567e-39
0.059163988 0.18998945 0.89958304 2.7644242e-39
0.062897176 0.1902381 0.90076035 2.8566184e-39
0.061987747 0.17718874 0.83897281 2.7640626e-39
0.068816803 0.18646662 0.88290274 2.9484553e-39
0.073211171 0.18855557 0.89279372 2.8566184e-39
0.076834597 0.18855557 0.89279372 2.8562597e-39
0.079958282 0.18738441 0.8872484 2.9488154e-39
0.082267299 0.18448727 0.87353075 3.0406509e-39
0.086622104 0.18622772 0.88177156 2.9484553e-39
0.09085688 0.18758227 0.8881852 3.0402908e-39
0.094594769 0.18784671 0.88943738 3.1324864e-39
0.099454768 0.1902381 0.90076035 3.0406509e-39
0.10349224 0.19094235 0.90409493 3.0406509e-39
0.10771464 0.19192788 0.90876132 3.1328437e-39
0.11142962 0.19197397 0.90897954 3.1332067e-39
0.11498069 0.19174376 0.90788954 3.1328479e-39
0.11856585 0.19158293 0.90712804 3.0402922e-39
0.12245286 0.19190484 0.90865231 2.9484553e-39
0.12609525 0.19183578 0.90832525 3.0406509e-39
0.13012518 0.19234346 0.91072905 2.8559009e-39
0.13505612 0.19411816 0.91913205 2.7640668e-39
0.16425803 0.20252706 0.95894754 2.6718726e-39
0.16876987 0.20327373 0.96248293 2.2119748e-39
0.17289594 0.20353249 0.9637081 4.3357253e-39
0.177168 0.20394786 0.96567482 8.9408097e-39
0.18122591 0.20410407 0.96641445 1.9332244e-39
0.18505365 0.20399989 0.96592122 1.2896612e-39
0.18873307 0.20373996 0.96469045 1.3822142e-39
0.19142869 0.20245014 0.9585833 1.4740497e-39
0.19544286 0.20257838 0.95919055 1.4740497e-39
0.19615473 0.19934562 0.94388366 1.7502778e-39
0.19894378 0.19830723 0.93896699 1.7502792e-39
0.19825496 0.19390628 0.91812891 1.6580822e-39
0.20035331 0.19234346 0.91072905 1.7502778e-39
0.20451696 0.19278409 0.91281539 1.842835e-39
0.20842268 0.19297022 0.91369671 1.9350278e-39
0.21187524 0.19273761 0.91259533 2.0268647e-39
0.21573506 0.1928771 0.91325581 2.1190576e-39
0.21933571 0.19278409 0.91281539 2.3034488e-39
0.22393136 0.19355419 0.91646177 2.1194191e-39
0.22606367 0.19220474 0.91007221 2.211256e-39
0.23241127 0.194425 0.92058498 2.0272249e-39
0.2506102 0.2031188 0.96174932 2.119059e-39
0.25044128 0.1998689 0.94636136 2.1194191e-39
0.25498331 0.20042005 0.94897103 2.2112532e-39
0.25607434 0.19828264 0.93885052 2.1194205e-39
0.25384086 0.19367142 0.9170168 2.1194219e-39
0.25656816 0.19292365 0.91347623 2.211256e-39
0.26128435 0.19367142 0.9170168 2.3034502e-39
0.26500607 0.19367142 0.9170168 2.2112546e-39
0.26944581 0.19418888 0.91946691 2.3030915e-39
0.2717945 0.18806766 0.8904835 2.5796798e-39
0.27440801 0.18738441 0.8872484 2.3956472e-39
0.27613202 0.18611933 0.88125837 2.396006e-39
0.27912381 0.18573019 0.87941581 2.3956458e-39
0.28060687 0.18435964 0.87292641 2.3956472e-39
0.28451052 0.18459377 0.87403494 2.396006e-39
0.2887913 0.18506379 0.87626052 2.4878429e-39
0.29309392 0.18553622 0.87849742 2.7640696e-39
0.29717657 0.18585972 0.88002914 3.2250464e-39
0.30141386 0.18627112 0.88197702 3.5938289e-39
0.30538473 0.18651012 0.88310868 3.7785775e-39
0.30893281 0.18648836 0.88300568 4.6079738e-39
0.31262591 0.18655364 0.88331473 5.8054352e-39
0.3165063 0.18672793 0.88414001 6.1742163e-39
0.32046884 0.18694624 0.88517374 6.0816592e-39
0.32455465 0.18723083 0.88652116 5.8979868e-39
0.32907742 0.18775848 0.88901961 5.8976294e-39
0.3335472 0.18824479 0.8913222 6.1731401e-39
0.33843967 0.18895665 0.89469284 5.7128808e-39
0.34194958 0.18888968 0.89437574 5.6206866e-39
0.3476328 0.19001202 0.89968991 6.1734975e-39
0.35440075 0.19169778 0.90767181 6.1734975e-39
0.36273783 0.19418888 0.91946691 6.5433562e-39
0.35854444 0.18998945 0.89958304 8.5712957e-39
0.36483979 0.19137657 0.90615088 1.0230093e-38
0.86343956 0.36175367 1.7128712 3.0388797e-39
0.87474525 0.36356327 1.7214395 3.6885623e-39
0.8743757 0.36053014 1.707078 7.5560858e-39
0.88050979 0.36020526 1.7055397 1.7488387e-39
1.157144 0.45894122 2.1730456 5.5281925e-40
1.113241 0.43818888 2.074785 4.6062362e-40
1.1195139 0.43734989 2.0708125 5.5281785e-40
1.1410264 0.44243255 2.0948784 6.4501488e-40
1.1215973 0.43168229 2.043977 6.4501488e-40
-1.4939784 0.54723907 2.5422735 9.495417e-39
-1.4717991 0.54286402 2.5219491 1.0880877e-38
-1.4523715 0.53944981 2.5060875 4.4271923e-39
-1.3866606 0.51867533 2.4095769 3.0399306e-39
-1.3634292 0.51360792 2.3860354 7.8304965e-39
-1.3482217 0.51151222 2.3762996 1.3733175e-38
-1.3285693 0.50768781 2.3585329 1.3370877e-38
-1.3177656 0.50721377 2.3563309 8.6703353e-39
-1.3029306 0.50516981 2.3468354 4.4224994e-39
-1.2878171 0.50298697 2.3366947 6.8188613e-39
-1.2728337 0.50082296 2.3266413 1.041196e-38
-1.2661147 0.50190264 2.3316572 1.9077643e-38
-1.258978 0.50283182 2.3359737 2.0742939e-38
-1.2545295 0.50485682 2.3453813 1.9914975e-38
-1.2622155 0.51183349 2.3777924 2.0375593e-38
-1.2628777 0.51604748 2.3973689 2.1850361e-38
-1.258728 0.51834536 2.4080441 2.2956709e-38
-1.2634217 0.52434939 2.4359365 2.3233657e-38
-1.2628809 0.52825862 2.4540975 2.1761044e-38
-1.2553625 0.52928805 2.4588797 1.3094658e-38
-1.2506635 0.53153223 2.4693055 4.7030519e-39
-1.2418569 0.53205281 2.471724 5.5274036e-39
-1.23062 0.53153223 2.4693055 9.488936e-39
-1.2202003 0.53135896 2.4685004 1.7324857e-38
-1.2117622 0.53205281 2.471724 2.2860909e-38
-1.1997722 0.53118575 2.4676957 2.3417687e-38
-1.1936476 0.5329228 2.4757655 2.3417689e-38
-1.1945373 0.53784746 2.4986439 2.32333e-38
-1.1994389 0.54467845 2.5303779 2.2404253e-38
-1.2008082 0.55000943 2.5551436 2.1020234e-38
-1.215461 0.56157058 2.6088529 1.7519674e-38
-1.4841007 0.69171387 3.2134511 1.4566897e-38
-1.6060308 0.7551797 3.5082905 1.3183245e-38
-1.6506909 0.78312248 3.6381023 1.3368715e-38
-1.6778518 0.80319262 3.7313409 1.3830056e-38
-1.6927419 0.81770086 3.7987409 1.3738931e-38
-1.6806978 0.81934536 3.8063805 1.2261638e-38
-1.6770538 0.82515335 3.8333623 9.9549588e-39
-1.6708018 0.82977486 3.8548324 1.0970187e-38
-1.6610771 0.83274293 3.8686206 1.2444593e-38
-1.6521299 0.83616102 3.8845 1.3550944e-38
-1.643109 0.83960736 3.9005105 1.0877279e-38
-1.6314814 0.84177577 3.910584 1.0972702e-38
-1.6299225 0.84923285 3.9452271 1.2630427e-38
-1.6155945 0.85011888 3.9493432 1.3092126e-38
-1.6020732 0.85145134 3.9555333 1.3369073e-38
-1.5951872 0.85637301 3.9783976 1.3736778e-38
-1.607766 0.87195176 4.0507708 1.4105197e-38
-1.635967 0.89641249 4.1644063 1.428995e-38
-1.6226358 0.8983891 4.1735892 1.4290309e-38
-1.6391304 0.91709501 4.2604899 1.4566537e-38
-1.6356459 0.92490232 4.2967596 1.49346e-38
-1.6414976 0.93821406 4.3586016 1.5211908e-38
-1.6313214 0.94255513 4.3787684 1.5304459e-38
-1.627671 0.95080388 4.417089 1.5672523e-38
-1.62587 0.96032876 4.461338 1.576472e-38
-1.6565725 0.98948264 4.5967765 1.5581046e-38
-1.6870846 1.0191857 4.734766 1.5488852e-38
-1.5241677 1.0665431 4.9547715 1.3552749e-38
-1.496225 1.0609882 4.9289656 1.4012647e-38
-1.3885334 0.99796563 4.6361856 1.4288875e-38
-1.1406162 0.83104432 3.8607297 1.4290311e-38
-1.1141523 0.82306963 3.8236823 1.4106283e-38
-1.0892814 0.81606305 3.791132 1.4013732e-38
-1.0728205 0.81524658 3.787339 1.3921173e-38
-1.0627661 0.81934536 3.8063805 1.3644945e-38
-1.0515472 0.82265413 3.8217521 1.3460915e-38
-1.0434104 0.82850933 3.848953 1.3460191e-38
-1.034098 0.8335948 3.8725784 1.2720836e-38
-1.0246706 0.83874309 3.8964956 9.0355192e-39
-1.0130275 0.84221077 3.912605 1.134364e-38
-1.0002497 0.84483039 3.9247749 1.3645301e-38
-0.99255359 0.85189641 3.9576011 1.3829335e-38
-0.98628742 0.8604424 3.9973025 1.4198114e-38
-0.97624958 0.86592871 4.02279 1.4381787e-38
-0.9635067 0.86916155 4.0378084 1.4473984e-38
-0.94409806 0.8663891 4.0249286 1.4750215e-38
-0.92139482 0.8604424 3.9973025 1.4566901e-38
-0.89571321 0.85145134 3.9555333 1.4659457e-38
-0.87146401 0.84351856 3.9186804 1.5027878e-38
-0.84853274 0.83659029 3.8864942 1.5212271e-38
-0.83190519 0.83573222 3.882508 1.465981e-38
-0.81406063 0.8335948 3.8725784 1.2908097e-38
-0.79957062 0.83487594 3.87853 1.5027876e-38
-0.78503603 0.83616102 3.8845 1.5857281e-38
-0.7680884 0.83487594 3.87853 1.5857281e-38
-0.75583214 0.83874309 3.8964956 1.5949843e-38
-0.74771464 0.84746641 3.9370208 1.5673617e-38
-0.51131123 0.59217948 2.7510505 1.622679e-38
-0.499239 0.59110552 2.7460613 1.6134951e-38
-0.49166065 0.59542489 2.7661273 1.6319703e-38
-0.4724932 0.58558315 2.7204063 1.6595931e-38
-0.45718119 0.580163 2.6952264 1.6779605e-38
-0.44592503 0.57975024 2.6933086 1.7240583e-38
-0.43406767 0.57851541 2.6875722 1.7055473e-38
-0.42181244 0.57667297 2.679013 1.6689214e-38
-0.40977958 0.57504511 2.6714506 1.1434419e-38
-0.39837515 0.5742346 2.6676853 4.8859928e-39
-0.38483626 0.57021618 2.6490171 6.9153981e-39
-0.3727808 0.56822801 2.6397805 9.864945e-39
-0.3606838 0.56605691 2.6296947 1.3365492e-38
-0.34604466 0.55964214 2.5998938 1.6038433e-38
-0.33275047 0.55506742 2.5786412 1.8069611e-38
-0.32042962 0.55187196 2.5637965 2.1206061e-38
-0.30835366 0.54889792 2.5499802 2.1299337e-38
-0.29730356 0.54760683 2.543982 2.1392623e-38
-0.28794631 0.54945308 2.5525594 2.157774e-38
-0.28032759 0.55487841 2.5777633 2.1946526e-38
-0.26704699 0.54908282 2.5508392 2.2498257e-38
-0.25747508 0.55075294 2.5585978 2.2498976e-38
-0.24792883 0.55262053 2.5672739 2.3050348e-38
-0.23686692 0.55112541 2.5603282 2.2774483e-38
-0.22670576 0.55168515 2.5629284 2.1025294e-38
-0.21711253 0.55374718 2.5725079 2.0748347e-38
-0.20709415 0.55487841 2.5777633 2.3325854e-38
-0.19663222 0.55487841 2.5777633 2.3417689e-38
-0.18636067 0.55544579 2.580399 2.3417689e-38
-0.17600803 0.55582464 2.5821593 2.3417689e-38
-0.16575439 0.55658394 2.5856867 2.3417689e-38
-0.15648958 0.56099063 2.6061587 2.3417689e-38
-0.14692394 0.56487966 2.6242256 2.3417689e-38
-0.13627346 0.56487966 2.6242256 2.3325494e-38
-0.12761347 0.57383025 2.6658065 2.341769e-38
-0.11799914 0.57975024 2.6933086 2.3509886e-38
-0.10612445 0.57463956 2.6695666 2.3509886e-38
-0.096171632 0.57995653 2.6942673 2.3509886e-38
-0.086280845 0.58705974 2.7272661 2.3326215e-38
-0.025703432 0.20062512 0.93203139 1.7238404e-38
-0.021923458 0.20064983 0.93214613 5.8039849e-39
-0.018147022 0.20072396 0.93249053 4.6072521e-39
-0.014364254 0.2007487 0.93260545 4.0544371e-39
-0.010587075 0.20089717 0.93329519 3.9626016e-39
-0.0067700623 0.20003411 0.92928571 4.146274e-39
-0.0029758853 0.19852331 0.92226714 3.9622429e-39
0.00077016192 0.19930021 0.92587632 3.6856602e-39
0.0044511026 0.19592184 0.91018164 3.3165189e-39
0.0078798467 0.1895415 0.88054091 2.9480951e-39
0.011386008 0.18842384 0.87534869 2.7644214e-39
0.014945545 0.18851103 0.8757537 2.764064e-39
0.018476306 0.18827148 0.87464082 2.6718698e-39
0.022074511 0.18868564 0.87656486 2.6722299e-39
0.025715439 0.18929932 0.87941581 2.6718712e-39
0.029260777 0.18914552 0.87870133 2.5800343e-39
0.032804165 0.1890139 0.87808985 2.6715111e-39
0.036225066 0.18827148 0.87464082 2.580393e-39
0.039996613 0.18932131 0.87951797 2.5807504e-39
0.043918196 0.19085114 0.88662499 2.5803916e-39
0.047527719 0.19089586 0.88683271 2.7644228e-39
0.05140999 0.19195263 0.89174217 2.8562611e-39
0.055302728 0.19290695 0.8961755 2.8562611e-39
0.059354406 0.19426367 0.90247834 2.856617e-39
0.057927981 0.17857526 0.82959574 2.9484525e-39
0.061557986 0.17934169 0.83315623 2.9480923e-39
0.065859832 0.18188369 0.84496552 2.9484539e-39
0.073021725 0.19168171 0.8904835 2.8566184e-39
0.071099669 0.17783478 0.82615572 2.9484553e-39
0.074550264 0.17806795 0.82723892 3.039932e-39
0.081440397 0.18614253 0.8647505 2.9480966e-39
0.086561613 0.18967387 0.88115579 2.9480951e-39
0.09085688 0.19118698 0.8881852 3.0402908e-39
0.094240479 0.19073945 0.88610613 3.1324878e-39
0.09845905 0.19195263 0.89174217 3.1324864e-39
0.10233133 0.1924286 0.89395332 3.1328465e-39
0.10694442 0.19421735 0.90226322 3.1328437e-39
0.11095007 0.19482103 0.90506762 3.1324864e-39
