# .PCD v0.7 - Point Cloud Data file format
VERSION 0.7
FIELDS x y z rgb
SIZE 4 4 4 4
TYPE F F F F
COUNT 1 1 1 1
WIDTH 1031
HEIGHT 1
VIEWPOINT 0 0 0 1 0 0 0
POINTS 1031
DATA ascii
0.029366437 0.19340762 0.88187426 2.5800343e-39
0.032983966 0.19363318 0.88290274 2.5803916e-39
0.036473673 0.19313766 0.88064331 2.6718698e-39
0.040234994 0.19404049 0.88475996 2.5800315e-39
0.043861695 0.19419935 0.88548428 2.6722285e-39
0.047527719 0.19449508 0.88683271 2.8555436e-39
0.051555727 0.19612621 0.89427012 2.7637081e-39
0.055585656 0.19754961 0.90076035 2.5800343e-39
0.058565527 0.19529575 0.8904835 2.6722285e-39
0.062348243 0.19582552 0.89289904 2.7640654e-39
0.065995447 0.19589482 0.89321506 2.7644228e-39
0.069505781 0.1955718 0.89174217 2.8559023e-39
0.072240017 0.19320509 0.88095075 2.7644242e-39
0.078010984 0.18984731 0.8656404 2.8562597e-39
0.1195876 0.23753999 1.0831031 3.0402908e-39
0.13306054 0.23805083 1.0854324 2.8562597e-39
0.1374658 0.23805083 1.0854324 2.8562611e-39
0.14201358 0.23828997 1.0865228 2.9480966e-39
0.14598329 0.23757398 1.083258 3.0406509e-39
0.1553541 0.23846108 1.087303 2.6722299e-39
0.16751006 0.23692986 1.0803212 2.6725873e-39
0.15759252 0.21721672 0.99043572 2.5800315e-39
0.16190876 0.21761528 0.99225307 2.6722271e-39
0.16406512 0.21516192 0.98106658 2.7640668e-39
0.16852725 0.21577707 0.98387146 2.4878415e-39
0.17276728 0.21608596 0.98527992 5.5357119e-39
0.1768351 0.21617036 0.98566473 1.410593e-38
0.18083546 0.21617036 0.98566473 3.6856616e-39
0.18517332 0.21656509 0.98746455 1.3818597e-39
0.18935384 0.21676299 0.98836696 1.4740525e-39
0.1926108 0.21591736 0.98451114 1.5662467e-39
0.1960202 0.2152735 0.98157537 1.6584423e-39
0.19997801 0.21524559 0.98144811 1.7502778e-39
0.20283061 0.21405241 0.97600758 1.6584423e-39
0.21215232 0.21960118 1.0013081 1.6588025e-39
0.19823103 0.19762015 0.90108198 1.6584437e-39
0.20167206 0.19740869 0.90011781 1.8424749e-39
0.20576556 0.19783206 0.90204823 2.026506e-39
0.20912755 0.19754961 0.90076035 2.2108958e-39
0.21263151 0.19740869 0.90011781 1.9350292e-39
0.21692945 0.1979972 0.90280122 1.9346691e-39
0.22056718 0.19797359 0.90269357 2.0268661e-39
0.22431102 0.19804443 0.90301657 2.2112546e-39
0.22778575 0.19787923 0.90226322 2.2112532e-39
0.23208377 0.1984231 0.90474313 2.2112546e-39
0.23620732 0.19880322 0.90647638 2.211256e-39
0.23959941 0.19856548 0.90539235 2.3030915e-39
0.24362358 0.19885084 0.90669352 2.3030915e-39
0.24757026 0.1990654 0.90767181 2.3034502e-39
0.25301343 0.20045932 0.91402763 2.211256e-39
0.26040128 0.20333144 0.92712355 2.211256e-39
0.26993203 0.19925651 0.90854323 2.5796784e-39
0.27309501 0.19887465 0.90680212 2.4874841e-39
0.27575141 0.19813897 0.90344757 2.4874827e-39
0.27881917 0.19771428 0.90151119 2.4878429e-39
0.27964756 0.19573317 0.89247799 2.5800371e-39
0.28108278 0.19422208 0.88558787 2.764427e-39
0.28447732 0.19408585 0.88496679 2.8559051e-39
0.28746414 0.19367835 0.88310868 2.6718754e-39
0.29135412 0.19388188 0.88403678 2.5800371e-39
0.29507983 0.19397248 0.88444984 2.579677e-39
0.29884395 0.19408585 0.88496679 2.671874e-39
0.30247098 0.19410855 0.8850702 2.8559037e-39
0.30584854 0.19397248 0.88444984 3.2246834e-39
0.30961895 0.19408585 0.88496679 3.9622471e-39
0.31339377 0.19419935 0.88548428 4.5161397e-39
0.3173587 0.19442676 0.88652116 4.9771165e-39
0.32129526 0.19463187 0.88745642 5.252623e-39
0.3253547 0.19490604 0.88870651 5.8057953e-39
0.3299686 0.19550271 0.89142716 6.2667721e-39
0.33425555 0.19589482 0.89321506 6.0820221e-39
0.33936208 0.19675371 0.89713126 5.5292084e-39
0.34296247 0.19673039 0.89702499 5.8057967e-39
0.34862709 0.19787923 0.90226322 5.2529831e-39
0.35533798 0.19959185 0.91007221 5.1607875e-39
0.36080977 0.2005804 0.91457969 4.9760389e-39
0.35995585 0.19806805 0.90312427 5.2522656e-39
0.36571524 0.19920871 0.90832525 5.8972693e-39
0.83253181 0.35931715 1.6383663 1.5687817e-39
0.83682698 0.35830912 1.6337701 5.0711282e-39
0.83929199 0.35653952 1.6257013 5.9008889e-39
1.0759577 0.43648911 1.9902446 5.5282065e-40
1.1073227 0.44586587 2.0329998 4.6062502e-40
1.1363229 0.45415878 2.0708125 5.5282065e-40
-1.2630833 0.45497206 2.0368283 2.2123308e-39
-1.2484353 0.45265824 2.0264697 2.0275794e-39
-1.2306581 0.44917163 2.0108607 2.6718698e-39
-1.0659335 0.39164686 1.7533327 1.8446329e-39
-1.0483775 0.38778517 1.7360446 1.2911018e-39
-1.0321018 0.38434801 1.720657 1.3825757e-39
-1.0077125 0.37782198 1.6914412 3.6856532e-39
-1.0046635 0.37926242 1.6978898 9.7698347e-39
-1.475239 0.56465149 2.5278432 7.929899e-39
-1.457195 0.56165099 2.5144107 2.7662304e-39
-1.4009285 0.5437721 2.43437 4.3313841e-39
-1.3561633 0.53013515 2.3733201 1.0968738e-38
-1.3423232 0.5284785 2.3659034 1.4657645e-38
-1.3244433 0.52519602 2.3512082 1.4382144e-38
-1.3116422 0.52389443 2.3453813 1.1431894e-38
-1.295701 0.52131045 2.3338134 5.8980022e-39
-1.2810954 0.51922971 2.3244982 7.2780443e-39
-1.268157 0.5177989 2.3180928 1.151472e-38
-1.2610657 0.51875192 2.3223591 1.8525205e-38
-1.2543337 0.5198682 2.3273566 2.0467796e-38
-1.2479571 0.52114981 2.3330941 2.2957069e-38
-1.2523822 0.52699631 2.359268 2.3509884e-38
-1.2545353 0.53196955 2.3815322 2.341805e-38
-1.2535448 0.53567666 2.3981283 2.3509886e-38
-1.2597736 0.54255092 2.4289031 2.3509884e-38
-1.2653419 0.54924691 2.4588797 2.341769e-38
-1.2631572 0.55265725 2.4741473 2.3234019e-38
-1.2588754 0.55519736 2.4855189 2.1389757e-38
-1.2487879 0.55519736 2.4855189 1.3737531e-38
-1.2378875 0.55483305 2.4838881 5.7150515e-39
-1.2245924 0.55338061 2.4773858 4.9756787e-39
-1.2161297 0.55410588 2.4806325 7.1851341e-39
-1.206062 0.55410588 2.4806325 1.1978594e-38
-1.1983501 0.55519736 2.4855189 1.7051138e-38
-1.1980959 0.55979186 2.5060875 1.5027867e-38
-1.1982374 0.56465149 2.5278432 1.2724419e-38
-1.1907612 0.5659743 2.5337653 1.2907373e-38
-1.1892339 0.57017237 2.5525594 1.3369071e-38
-1.624155 0.79958922 3.5796175 1.207906e-38
-1.6382874 0.81382638 3.6433547 1.2537154e-38
-1.6659924 0.83512652 3.7387116 1.2262369e-38
-1.6614851 0.84052247 3.7628682 1.170919e-38
-1.6536102 0.84429914 3.7797756 1.0233341e-38
-1.64649 0.84853548 3.7987409 1.0507774e-38
-1.6409531 0.85367548 3.8217521 1.2630066e-38
-1.6395118 0.86106473 3.8548324 1.4105924e-38
-1.6305085 0.86458647 3.8705986 1.3828616e-38
-1.6147996 0.86458647 3.8705986 1.3736417e-38
-1.6147761 0.8730672 3.9085653 1.3644939e-38
-1.5964406 0.8717171 3.9025211 1.3920806e-38
-1.5822332 0.87261671 3.9065485 1.4197034e-38
-1.5736865 0.876688 3.9247749 1.4381427e-38
-1.5865442 0.89288867 3.9973025 1.4289232e-38
-1.5964509 0.9077462 4.063817 1.4473622e-38
-1.5774176 0.90628678 4.0572834 1.4565818e-38
-1.5804312 0.91759694 4.1079168 1.4934598e-38
-1.6011156 0.93951732 4.2060504 1.5118987e-38
-1.6339722 0.96912962 4.3386192 1.5487411e-38
-1.6427226 0.98493373 4.4093714 1.5580686e-38
-1.6537215 1.0024488 4.4877834 1.5855836e-38
-1.522536 1.0771536 4.8222232 1.392153e-38
-1.4665351 1.0510448 4.7053394 1.4197398e-38
-1.4583145 1.0589426 4.7406955 1.4105923e-38
-1.0799819 0.7947045 3.5577495 1.4198477e-38
-1.0823269 0.80722255 3.6137903 1.4566903e-38
-1.0763948 0.81382638 3.6433547 1.4475426e-38
-1.0657109 0.8169716 3.6574352 1.4383227e-38
-1.0549442 0.8201412 3.6716249 1.4474704e-38
-1.0481761 0.82655483 3.7003376 1.4473628e-38
-1.0418146 0.83348012 3.7313409 1.4288875e-38
-1.0297158 0.83595216 3.7424078 1.2999574e-38
-1.0190607 0.83968776 3.7591314 9.3138984e-39
-1.0068036 0.84219682 3.770364 1.1250374e-38
-0.99796242 0.8476848 3.7949326 1.3644945e-38
-0.9905045 0.85453826 3.8256145 1.4105923e-38
-0.98142511 0.86018878 3.8509109 1.4290313e-38
-0.97372055 0.86724675 3.882508 1.484241e-38
-0.9658885 0.87442148 3.914628 1.4658378e-38
-0.95692801 0.88079751 3.9431722 1.4659098e-38
-0.93945664 0.87942338 3.9370208 1.4751294e-38
-0.91350228 0.86992347 3.8944912 1.5211909e-38
-0.89036822 0.86282206 3.8626993 1.5119353e-38
-0.87025136 0.85844225 3.8430917 1.5488137e-38
-0.85378724 0.8575716 3.8391941 1.5856201e-38
-0.83693254 0.85626894 3.8333623 1.4011211e-38
-0.82012898 0.85497028 3.8275485 1.3182882e-38
-0.80378205 0.85410666 3.8236823 1.5581765e-38
-0.78985924 0.85583562 3.8314226 1.5765802e-38
-0.77509379 0.85670274 3.8353043 1.6410812e-38
-0.76029843 0.8575716 3.8391941 1.6227139e-38
-0.7413336 0.85367548 3.8217521 1.6135306e-38
-0.73136073 0.86018878 3.8509109 1.6595208e-38
-0.51618803 0.62037092 2.7772894 1.622786e-38
-0.49942014 0.61361802 2.7470577 1.6596292e-38
-0.49274084 0.61923516 2.7722046 1.6964355e-38
-0.47368464 0.60919708 2.7272661 1.6964712e-38
-0.45832333 0.60354429 2.7019596 1.71491e-38
-0.44703826 0.60311383 2.7000325 1.7149819e-38
-0.43499416 0.60161197 2.6933086 1.7057268e-38
-0.42285988 0.59990466 2.6856654 1.6782493e-38
-0.41108507 0.59863049 2.6799614 7.6580176e-39
-0.40006676 0.59841865 2.679013 1.1992719e-39
-0.38686669 0.59484035 2.6629937 9.219619e-40
-0.37460944 0.59254771 2.6527297 1.1059944e-39
-0.36295307 0.59109795 2.6462393 1.1985474e-39
-0.34711748 0.58254606 2.607954 9.219619e-40
-0.33411607 0.57836223 2.5892239 8.2976627e-40
-0.32184651 0.57521468 2.5751328 7.3829091e-40
-0.30950037 0.5717144 2.5594628 1.1985488e-39
-0.29850721 0.57055706 2.5542817 1.1978257e-39
-0.28960621 0.57345921 2.5672739 1.2892997e-39
-0.28351313 0.58234543 2.6070561 1.6570004e-39
-0.26758793 0.57094234 2.5560064 2.0250599e-39
-0.25826061 0.57326478 2.5664036 2.2094469e-39
-0.24894182 0.57580227 2.5777633 2.4856709e-39
-0.23750949 0.57345921 2.5672739 2.4863897e-39
-0.22724426 0.57384837 2.5690162 4.1466271e-39
-0.21785277 0.5765875 2.5812788 1.8717876e-38
-0.20751809 0.57698095 2.5830402 2.3142183e-38
-0.19676621 0.57619458 2.5795197 2.0839818e-38
-0.18642421 0.5765875 2.5812788 1.5214091e-38
-0.17582813 0.57619458 2.5795197 1.816434e-38
-0.16468574 0.57384837 2.5690162 1.6689218e-38
-0.15573902 0.57935292 2.5936592 1.770374e-38
-0.14591241 0.58214498 2.6061587 1.4934263e-38
-0.13487098 0.58014792 2.597218 1.6039167e-38
-0.12645578 0.59006673 2.6416228 1.7420294e-38
-0.1170415 0.5967294 2.6714506 1.7695779e-38
-0.10538128 0.59213275 2.6508722 1.9265256e-38
-0.097772174 0.61184198 2.7391067 2.0282297e-38
-0.029632023 0.20922074 0.93664366 1.4564723e-38
-0.025821045 0.2091431 0.93629616 4.6061689e-39
-0.022015618 0.2090914 0.93606466 3.5023493e-39
-0.018214324 0.20906554 0.93594891 3.7785719e-39
-0.014422883 0.20916897 0.93641198 3.4090747e-39
-0.010629004 0.20929842 0.93699145 3.6856602e-39
-0.0067353398 0.20651254 0.9245196 3.6860189e-39
-0.0030207792 0.20911725 0.93618041 3.7782146e-39
0.00075801805 0.20355454 0.91127717 3.6856616e-39
0.004365555 0.19940233 0.89268845 3.3172378e-39
0.0079688225 0.1989098 0.8904835 3.1328465e-39
0.011546205 0.19828013 0.88766456 3.1328479e-39
0.01512576 0.19797836 0.88631362 3.1324864e-39
0.018738242 0.19814074 0.8870405 2.8562597e-39
0.022182379 0.19675756 0.88084823 2.7637081e-39
0.025727391 0.1965289 0.87982464 2.5800357e-39
0.029428139 0.19740063 0.88372719 2.6722299e-39
0.032983966 0.19721647 0.88290274 2.6722271e-39
0.036401693 0.19632356 0.87890536 2.6718698e-39
0.040150534 0.19721647 0.88290274 2.671867e-39
0.043728717 0.19719347 0.88279974 2.6718684e-39
0.047455456 0.19779313 0.88548428 2.8555436e-39
0.051373683 0.19905028 0.89111239 2.7637067e-39
0.055302728 0.20018125 0.8961755 2.5800329e-39
0.062348243 0.19944936 0.89289904 2.8562597e-39
0.066104636 0.19985005 0.89469284 2.9480966e-39
0.069334283 0.19869947 0.88954186 2.9480951e-39
0.072493076 0.19746977 0.88403678 2.7644228e-39
0.11127356 0.24297862 1.0877717 2.7644242e-39
0.11975893 0.24228241 1.0846548 2.9484553e-39
0.12410769 0.24217832 1.0841888 3.0406509e-39
0.12891404 0.2429437 1.0876154 2.9480966e-39
0.13311779 0.24256042 1.0858995 2.9484553e-39
0.13768293 0.24283905 1.0871469 2.8566198e-39
0.14225857 0.24311835 1.0883971 2.9480966e-39
0.14621343 0.24235184 1.0849657 2.9484553e-39
0.15068157 0.24245608 1.0854324 2.8562597e-39
0.15568949 0.24339826 1.0896504 2.8562611e-39
0.15962939 0.24266483 1.0863669 2.6725873e-39
0.16277714 0.24079897 1.0780138 2.6722299e-39
0.16734292 0.24107358 1.0792432 2.580393e-39
0.15697645 0.22037153 0.9865638 2.5800329e-39
0.16150658 0.22109181 0.98978829 2.6718698e-39
0.16400136 0.21905844 0.98068535 2.5800357e-39
0.16841781 0.21962743 0.98323256 2.396006e-39
0.17294735 0.22031412 0.98630679 5.4431561e-39
0.17708872 0.22048646 0.98707831 1.5122255e-38
0.180859 0.22019938 0.98579305 5.4388331e-39
0.18512502 0.22051521 0.98720706 1.2900242e-39
0.18937856 0.22080313 0.98849601 1.5658894e-39
0.19293697 0.22028542 0.98617828 1.7502792e-39
0.19632564 0.2195989 0.98310488 1.6580836e-39
0.20086333 0.22019938 0.98579305 1.6584437e-39
0.20348643 0.21871847 0.97916329 1.7502792e-39
0.21277142 0.2243177 1.0042301 1.7506394e-39
0.19801891 0.20106184 0.90011781 1.5662467e-39
0.20169604 0.20108575 0.9002248 1.7502792e-39
0.20561856 0.20134911 0.90140384 1.8424749e-39
0.20897835 0.20106184 0.90011781 1.9350292e-39
0.21237901 0.20082308 0.89904892 2.1190604e-39
0.21685186 0.20158912 0.90247834 2.1190604e-39
0.22046204 0.20154108 0.90226322 2.1190618e-39
0.22420406 0.20161316 0.90258592 2.2108973e-39
0.2273252 0.20113358 0.90043896 2.211256e-39
0.2312547 0.20137309 0.90151119 2.3030915e-39
0.23572752 0.20207088 0.90463507 2.2108973e-39
0.23919894 0.201902 0.90387905 2.2108958e-39
0.24301241 0.2020226 0.90441895 2.3030901e-39
0.24709627 0.20236103 0.90593404 2.2112546e-39
0.2524648 0.2037262 0.91204566 2.3034502e-39
0.2595748 0.20643692 0.92418098 2.3034502e-39
0.26993203 0.20294386 0.90854323 2.4871226e-39
0.27309501 0.20255494 0.90680212 2.4871254e-39
0.27575141 0.20180564 0.90344757 2.5793196e-39
0.27881917 0.20137309 0.90151119 2.5796784e-39
0.28057364 0.20001552 0.89543355 2.3956472e-39
0.28207263 0.19851287 0.88870651 2.4878401e-39
0.28507712 0.19809431 0.88683271 2.5793196e-39
0.28790072 0.19756205 0.88444984 2.4882002e-39
0.29172882 0.19772375 0.88517374 2.6722327e-39
0.29535586 0.19774686 0.88527721 2.671874e-39
0.29877412 0.19763131 0.88475996 2.5800371e-39
0.30222365 0.19753897 0.88434654 2.671874e-39
0.30566999 0.19744672 0.88393354 2.9484581e-39
0.30932969 0.19749284 0.88414001 3.5941862e-39
0.31291798 0.19749284 0.88414001 5.3455403e-39
0.31680226 0.19767752 0.88496679 6.4518808e-39
0.32084396 0.19795519 0.88620985 7.0043329e-39
0.32474476 0.19814074 0.8870405 6.8199431e-39
0.32942557 0.19879289 0.88996011 6.9117772e-39
0.33362576 0.19914404 0.89153212 7.4649509e-39
0.33867982 0.19999187 0.89532769 7.4656698e-39
0.34247553 0.2000865 0.89575142 7.1890843e-39
0.34841949 0.20142105 0.90172589 7.3738371e-39
0.35499659 0.20309009 0.90919787 7.0965314e-39
0.36063549 0.20419358 0.91413796 6.4515235e-39
0.36163828 0.20267631 0.90734547 6.2671322e-39
0.36734593 0.20379986 0.91237539 6.1742191e-39
0.3747521 0.20583388 0.92148137 6.4511605e-39
0.82948798 0.36173928 1.6194419 5.3491556e-39
0.83374208 0.36073616 1.6149511 7.2845394e-39
1.1097065 0.45509452 2.0373764 5.5281925e-40
1.1457243 0.46639028 2.0879457 4.6098235e-40
-1.2610477 0.46249202 2.0335457 2.8555408e-39
-1.2447703 0.4595297 2.0205207 5.5288483e-39
-1.2199651 0.4533591 1.9933888 7.5589584e-39
-1.0748951 0.40211532 1.7680736 2.8602281e-39
-1.060045 0.39922509 1.7553654 6.4609388e-40
-1.0466115 0.39683288 1.7448469 1.8428336e-39
-1.0145121 0.38728246 1.7028544 6.4515235e-39
-1.0142164 0.3898252 1.7140346 1.1800301e-38
-1.4846575 0.57858127 2.543982 6.1778191e-39
-1.4664485 0.57548726 2.5303779 2.7647885e-39
-1.4327154 0.56621432 2.4896057 5.8057953e-39
-1.3561633 0.53976732 2.3733201 1.2536425e-38
-1.3414848 0.53774446 2.3644257 1.4749842e-38
-1.3236213 0.53440654 2.3497488 1.4842762e-38
-1.3083996 0.53209454 2.3395832 1.2815551e-38
-1.2921163 0.5293138 2.3273566 6.0841969e-39
-1.2775651 0.52720696 2.3180928 5.7114417e-39
-1.2658316 0.52624017 2.3138418 1.0317629e-38
-1.2583637 0.52704555 2.3173831 1.7052237e-38
-1.2504896 0.52769166 2.320224 2.0284481e-38
-1.2425961 0.52833933 2.3230717 2.2957429e-38
-1.2457825 0.53374392 2.3468354 2.3418049e-38
-1.2478622 0.53875399 2.3688645 2.3509886e-38
-1.2491922 0.54351574 2.3898013 2.3509886e-38
-1.2557449 0.55064207 2.4211354 2.3509884e-38
-1.2637002 0.55850077 2.4556894 2.3417691e-38
-1.2631572 0.56269866 2.4741473 2.3234019e-38
-1.2584622 0.56509936 2.4847033 2.3050348e-38
-1.2496083 0.5656563 2.4871521 2.2034763e-38
-1.2391071 0.56547058 2.4863353 1.4843153e-38
-1.2245924 0.56343514 2.4773858 6.6380825e-39
-1.2129502 0.56269866 2.4741473 4.700168e-39
-1.2040893 0.56325084 2.4765754 6.356088e-39
-1.1967785 0.56454355 2.4822593 8.3847548e-39
-1.1898251 0.56602824 2.4887872 1.1244605e-38
-1.1843964 0.56826991 2.4986439 1.3367264e-38
-1.1769747 0.5695858 2.5044296 1.4105196e-38
-1.1788996 0.57548726 2.5303779 1.2908096e-38
-1.1713706 0.57683676 2.5363119 1.1890707e-38
-1.6337214 0.83382946 3.666291 1.1153868e-38
-1.6330767 0.84116161 3.69853 9.865996e-39
-1.6300105 0.84737098 3.725832 1.1247131e-38
-1.6252871 0.85282707 3.7498221 1.2813381e-38
-1.6124642 0.85409617 3.7554021 1.3736054e-38
-1.6148452 0.86351949 3.7968359 1.4382507e-38
-1.6156406 0.87226838 3.8353043 1.410556e-38
-1.6049532 0.87492776 3.8469973 1.4105197e-38
-1.5933883 0.87715632 3.856796 1.4288871e-38
-1.5697387 0.87271053 3.8372483 1.4012643e-38
-1.5636756 0.87805092 3.8607297 1.4013004e-38
-1.5425006 0.87492776 3.8469973 1.4381429e-38
-1.5724305 0.90102452 3.9617429 1.4382148e-38
-1.5653621 0.90624094 3.9846795 1.4473984e-38
-1.5459356 0.90433711 3.9763081 1.4658735e-38
-1.5265905 0.9024412 3.967972 1.5027156e-38
-1.5561599 0.92972887 4.087954 1.4934958e-38
-1.5412332 0.93073398 4.0923734 1.5211183e-38
-1.6071537 0.98111558 4.3138981 1.5395577e-38
-1.595099 0.98448133 4.3286967 1.5948391e-38
-1.6069316 1.0028293 4.4093714 1.5672526e-38
-1.5019282 1.06815 4.6965823 1.4383583e-38
-1.4373912 1.0353925 4.5525498 1.4382151e-38
-1.3864012 1.0116674 4.4482322 1.4198476e-38
-1.0644096 0.78695512 3.4601877 1.4290314e-38
-1.0503664 0.78695512 3.4601877 1.4566544e-38
-1.046849 0.79494822 3.4953327 1.4566904e-38
-1.0486397 0.80724698 3.5494096 1.4383232e-38
-1.0425433 0.81373245 3.5779257 1.4383232e-38
-1.0343771 0.81876266 3.6000431 1.4290314e-38
-1.0280769 0.82543522 3.6293819 1.4289595e-38
-1.0182282 0.82941127 3.6468647 1.3460192e-38
-1.007309 0.83261985 3.6609724 9.0380276e-39
-0.99630499 0.83585334 3.6751897 1.1065266e-38
-0.98665774 0.84034055 3.6949198 1.4013369e-38
-0.98463649 0.85156173 3.7442586 1.4381791e-38
-0.97961438 0.86049867 3.7835536 1.4565819e-38
-0.96958882 0.86525518 3.8044677 1.45669e-38
-0.96090841 0.87138551 3.8314226 1.4842768e-38
-0.95161915 0.87715632 3.856796 1.4843128e-38
-0.94027722 0.88119644 3.8745604 1.493604e-38
-0.92313492 0.87984562 3.8686206 1.4843844e-38
-0.90053165 0.87315303 3.8391941 1.4843844e-38
-0.88048524 0.86874765 3.8198237 1.5211549e-38
-0.8623718 0.86612564 3.8082952 1.5578896e-38
-0.84606457 0.86525518 3.8044677 1.4840613e-38
-0.82979006 0.86438644 3.800648 1.2813382e-38
-0.81314045 0.86308664 3.7949326 1.5487414e-38
-0.79693967 0.86222225 3.791132 1.6133862e-38
-0.78233677 0.86308664 3.7949326 1.6042024e-38
-0.76770455 0.86395276 3.7987409 1.6410091e-38
-0.75078046 0.86222225 3.791132 1.6411168e-38
-0.72594261 0.8511408 3.7424078 1.6410812e-38
-0.70517665 0.84446192 3.7130411 1.6594846e-38
-0.51808858 0.63396829 2.7875149 1.6687758e-38
-0.5005098 0.6261301 2.7530513 1.6779956e-38
-0.49328271 0.63117957 2.7752533 1.6780316e-38
-0.47385535 0.6204893 2.7282488 1.7241296e-38
-0.45881456 0.61516893 2.7048557 1.7240214e-38
-0.44751707 0.6147297 2.7029243 1.7057978e-38
-0.4354589 0.61319721 2.6961861 1.7241299e-38
-0.42346072 0.6116724 2.6894817 1.6597744e-38
-0.41181394 0.61058789 2.6847131 6.7353467e-39
-0.40049189 0.60993904 2.68186 1.1070748e-39
-0.38754827 0.60671526 2.6676853 9.2160177e-40
-0.37539864 0.60458493 2.6583183 1.0137974e-39
-0.36384326 0.60331386 2.6527297 1.1981873e-39
-0.34771636 0.59415382 2.6124537 9.219605e-40
-0.33491784 0.59028381 2.5954373 9.2160037e-40
-0.32283476 0.58746427 2.5830402 1.0145149e-39
-0.31055021 0.58407658 2.5681448 1.3829373e-39
-0.29911271 0.58210206 2.5594628 1.0141547e-39
-0.28999957 0.58467162 2.570761 9.219591e-40
-0.28478798 0.5955925 2.6187792 9.219619e-40
-0.26804039 0.58229887 2.5603282 9.2232064e-40
-0.25834817 0.58387852 2.5672739 1.1063518e-39
-0.24894182 0.58626413 2.5777633 9.219619e-40
-0.23750949 0.58387852 2.5672739 1.1056315e-39
-0.22724426 0.58427477 2.5690162 3.3172406e-39
-0.21785277 0.58706367 2.5812788 1.8533491e-38
-0.20751809 0.58746427 2.5830402 2.3142183e-38
-0.19676621 0.58666366 2.5795197 2.0378122e-38
-0.18636067 0.58686364 2.580399 1.3277974e-38
-0.17576824 0.58646381 2.5786412 1.503004e-38
-0.16435114 0.58308762 2.5637965 1.4660179e-38
-0.15563239 0.58947545 2.5918832 1.7890274e-38
-0.14601295 0.59313047 2.607954 1.8443436e-38
-0.13533525 0.59272212 2.6061587 1.8535279e-38
-0.12779346 0.6071431 2.6695666 1.7060875e-38
-0.11901528 0.61781764 2.716502 1.5492466e-38
-0.1076812 0.61604929 2.7087266 1.5123679e-38
-0.099720404 0.63537186 2.7936866 1.4479033e-38
-0.029657707 0.21320677 0.93745553 9.7730885e-39
-0.025837023 0.21307485 0.93687546 4.4232182e-39
-0.022021065 0.21294309 0.93629616 4.4235826e-39
-0.018207571 0.2127852 0.93560195 4.699452e-39
-0.014406846 0.21273261 0.93537074 3.5016277e-39
-0.010609308 0.21270634 0.93525517 3.7778544e-39
-0.0067378082 0.21034178 0.92485839 3.6856588e-39
-0.0030155587 0.21254881 0.9345625 3.6860203e-39
0.00075719779 0.20702872 0.91029108 3.5938233e-39
0.0043789791 0.20364965 0.89543355 3.2250422e-39
0.0079772668 0.20273846 0.89142716 3.0410096e-39
0.011563831 0.20219092 0.88901961 3.1324878e-39
0.015145263 0.20183541 0.88745642 3.224682e-39
0.018773435 0.20211971 0.88870651 3.1324864e-39
0.022249686 0.20094034 0.8835209 2.9484553e-39
0.025838492 0.2009638 0.88362402 2.7640654e-39
0.029604375 0.20219092 0.88901961 2.8562625e-39
0.033107515 0.2015519 0.88620985 2.8558995e-39
0.036473673 0.2002859 0.88064331 2.764064e-39
0.040249102 0.20129271 0.8850702 2.764064e-39
0.043657448 0.20044911 0.88136095 2.6718712e-39
0.047394481 0.20112813 0.88434654 2.8559009e-39
0.051555727 0.20338506 0.89427012 2.7644242e-39
0.055665132 0.20515403 0.90204823 2.7644242e-39
0.058586199 0.20259534 0.89079785 2.7644242e-39
0.062326193 0.20300139 0.89258319 3.0402908e-39
0.066089012 0.20343311 0.89448142 2.948098e-39
0.069155522 0.2017881 0.8872484 2.8562611e-39
0.072400086 0.20079975 0.88290274 2.9484567e-39
0.10636976 0.24626113 1.0827934 2.9477364e-39
0.11130555 0.24746448 1.0880843 3.0402922e-39
0.116005 0.24807057 1.0907493 3.0406509e-39
0.11969034 0.24654321 1.0840336 3.132485e-39
0.12382397 0.24601483 1.0817103 3.132485e-39
0.12865528 0.24686134 1.0854324 3.0402922e-39
0.13294618 0.24664916 1.0844995 2.8566212e-39
0.1376434 0.24718028 1.0868348 2.8566212e-39
0.14223813 0.24750005 1.0882407 3.040295e-39
0.14617153 0.24668451 1.0846548 2.8562625e-39
0.15104972 0.24746448 1.0880843 2.8562611e-39
0.15627427 0.24875149 1.0937432 2.7640682e-39
0.16240714 0.24461682 1.0755634 2.6718712e-39
0.16689089 0.2447907 1.0763279 2.6718684e-39
0.16329636 0.23340896 1.0262831 2.3034474e-39
0.16482507 0.2297342 1.0101255 2.395643e-39
0.16580546 0.22549212 0.99147338 2.3034502e-39
0.17023066 0.22602493 0.99381608 2.2112546e-39
0.17490695 0.22685874 0.9974823 4.5208313e-39
0.17909685 0.22703822 0.99827147 1.4015185e-38
0.18278684 0.22659005 0.99630094 8.1114218e-39
0.18680575 0.22656024 0.99616987 1.8417546e-39
0.19097438 0.2267094 0.99682564 1.5658894e-39
0.1942018 0.22575821 0.99264336 1.8421147e-39
0.19820447 0.22572862 0.99251324 1.7502792e-39
0.2019943 0.2254626 0.99134356 1.6584423e-39
0.2052651 0.22463898 0.98772222 1.8428322e-39
0.21313895 0.22878791 1.0059648 1.7509981e-39
0.21812013 0.2297342 1.0101255 1.7502806e-39
0.20232153 0.20537427 0.90301657 1.6580836e-39
0.20625706 0.20564407 0.90420288 1.6580836e-39
0.20965137 0.20537427 0.90301657 1.8424749e-39
0.21288462 0.20495868 0.90118921 2.0268647e-39
0.21739607 0.20576695 0.90474313 2.119059e-39
0.22117372 0.20586535 0.90517586 2.2108973e-39
0.23466729 0.21485624 0.94470811 2.3034516e-39
0.23841216 0.21477583 0.94435459 2.3030929e-39
0.23283502 0.20643303 0.90767181 2.3034502e-39
0.23711582 0.20695406 0.90996283 2.2116147e-39
0.24426717 0.20675527 0.90908873 2.3952871e-39
0.24864341 0.20732786 0.91160637 2.394927e-39
0.25408709 0.20876065 0.91790622 2.3952857e-39
0.26049697 0.21093445 0.92746425 2.3956444e-39
0.26618078 0.20658162 0.90832525 2.4878415e-39
0.26967311 0.20643303 0.90767181 2.4874813e-39
0.27319315 0.20630935 0.90712804 2.4874841e-39
0.27516037 0.20503189 0.90151119 2.4874841e-39
0.2787528 0.20498307 0.9012965 2.4874841e-39
0.28001064 0.20324101 0.89363676 2.3956458e-39
0.28220513 0.20221466 0.88912398 2.3034516e-39
0.28511053 0.20171718 0.8869366 2.3956486e-39
0.28776625 0.20105766 0.88403678 2.396006e-39
0.29186535 0.20141044 0.88558787 2.6722341e-39
0.29570165 0.20157549 0.88631362 2.8562653e-39
0.2987043 0.20117512 0.88455319 2.8566254e-39
0.30208251 0.20103419 0.88393354 2.9484595e-39
0.30556294 0.2009638 0.88362402 2.8559065e-39
0.30925745 0.20103419 0.88393354 2.9484609e-39
0.3128449 0.20103419 0.88393354 4.1470013e-39
0.31654325 0.20110463 0.88424325 5.9894677e-39
0.32046884 0.20131624 0.88517374 7.6486233e-39
0.32444066 0.2015519 0.88620985 8.6627711e-39
0.32907742 0.20219092 0.88901961 8.0174016e-39
0.33315498 0.20247623 0.89027411 7.8333705e-39
0.33792055 0.20316906 0.89332044 8.2028691e-39
0.34231353 0.20362557 0.89532769 8.2025118e-39
0.34833649 0.20503189 0.90151119 8.2954277e-39
0.35448575 0.20648253 0.90788954 8.570937e-39
0.35924745 0.20710342 0.91061956 8.1103203e-39
0.36220261 0.2066808 0.90876132 8.0188422e-39
0.36899123 0.20843212 0.91646177 8.2954291e-39
0.37704667 0.21085694 0.92712355 8.3872646e-39
0.8259545 0.36674288 1.6125433 5.7182969e-39
0.82931954 0.3653422 1.6063846 8.0203023e-39
1.122087 0.46853274 2.0601063 6.4501348e-40
1.1676211 0.4839398 2.1278501 4.6098095e-40
-1.2580066 0.46961001 2.0286417 5.0675086e-39
-1.2394775 0.46574131 2.0119295 9.1244737e-39
-1.2094564 0.45747441 1.9762179 8.9429761e-39
-1.0840087 0.4127613 1.7830642 2.4918099e-39
-1.0702187 0.41024917 1.7722123 5.5389685e-40
-1.0607913 0.40938669 1.7684865 2.579314e-39
-1.0269856 0.39904019 1.7237911 8.0184848e-39
-1.9326118 0.75607616 3.2661307 1.2262361e-38
-1.4813012 0.59168959 2.5560064 3.3158001e-39
-1.4649924 0.58930212 2.5456929 7.740463e-39
-1.354889 0.54888332 2.3710902 1.3275073e-38
-1.3393933 0.54648721 2.3607392 1.4750564e-38
-1.3215704 0.54310024 2.3461082 1.4842762e-38
-1.303967 0.53975499 2.3316572 1.3462723e-38
-1.2865793 0.53645074 2.3173831 6.0874325e-39
-1.2721121 0.53432453 2.3081985 4.9753144e-39
-1.2608222 0.53351128 2.3046851 8.7528171e-39
-1.2529943 0.53416169 2.3074949 1.5301944e-38
-1.2443879 0.53448749 2.3089023 2.046778e-38
-1.2350171 0.53448749 2.3089023 2.3233295e-38
-1.2358223 0.53892511 2.3280723 2.3509884e-38
-1.2397164 0.54478848 2.3534009 2.3509886e-38
-1.2425246 0.55026203 2.3770459 2.3509886e-38
-1.2501478 0.55797023 2.4103441 2.341805e-38
-1.2592074 0.56644619 2.4469588 2.3418047e-38
-1.2631572 0.57274002 2.4741473 2.3325852e-38
-1.2601165 0.57593971 2.4879694 2.2405692e-38
-1.253727 0.57764816 2.4953496 2.1022044e-38
-1.2452413 0.57841074 2.4986439 1.8346926e-38
-1.2322537 0.57707757 2.4928846 1.124894e-38
-1.2193258 0.57575047 2.4871521 6.2692902e-39
-1.2084377 0.57537246 2.4855189 4.7001694e-39
-1.2007153 0.57650805 2.4904246 5.9876671e-39
-1.1906078 0.57650805 2.4904246 8.2918305e-39
-1.1824452 0.57745785 2.4945273 1.1703782e-38
-1.1781439 0.58032596 2.5069175 1.1799578e-38
-1.1753641 0.58400017 2.5227892 1.0971625e-38
-1.1647372 0.58380562 2.5219491 1.179995e-38
-1.1449668 0.57898396 2.5011201 1.2352401e-38
-1.1255202 0.57424134 2.4806325 1.0971626e-38
-1.1139926 0.57348967 2.4773858 9.9567581e-39
-1.0893234 0.56589746 2.4445887 1.142901e-38
-1.0846554 0.56865168 2.4564862 1.2169808e-38
-1.5849478 0.85450244 3.6913168 1.3828607e-38
-1.5707324 0.85491925 3.6931174 1.4198112e-38
-1.5780675 0.86718678 3.7461112 1.3737495e-38
-1.5808548 0.87716943 3.7892346 1.3645302e-38
-1.5781137 0.88425052 3.8198237 1.3553469e-38
-1.549322 0.87673062 3.787339 1.373678e-38
-1.5541652 0.88828409 3.8372483 1.3645305e-38
-1.5370336 0.88738453 3.8333623 1.3921536e-38
-1.5601841 0.90996081 3.9308882 1.3829342e-38
-1.5539123 0.91566586 3.9555333 1.4105207e-38
-1.51257 0.90060866 3.8904886 1.4105205e-38
-1.4914156 0.89738071 3.8765442 1.4197758e-38
-1.5395342 0.93620968 4.0442791 1.4842047e-38
-1.5288372 0.93972361 4.0594587 1.5026442e-38
-1.5489043 0.9624297 4.1575456 1.5303387e-38
-1.5481843 0.97257739 4.2013822 1.5303382e-38
-1.5739312 0.99976295 4.3188195 1.567252e-38
-1.4968467 1.0699539 4.6220336 1.346199e-38
-1.4629053 1.0589634 4.5745564 1.3370156e-38
-1.0949985 0.80283302 3.4681129 1.3277245e-38
-1.0711098 0.79554451 3.4366276 1.3277606e-38
-1.0542908 0.79338366 3.4272933 1.3001019e-38
-1.0422683 0.79482287 3.4335105 1.3184335e-38
-1.0353767 0.80026686 3.4570277 1.3000664e-38
-1.0307596 0.80764264 3.4888897 1.2724802e-38
-1.0255796 0.8147766 3.5197074 1.2632966e-38
-1.019351 0.82126731 3.5477464 1.2447855e-38
-1.0092086 0.82474566 3.562772 1.2079069e-38
-0.9985081 0.82786232 3.5762355 8.7603715e-39
-0.98772639 0.83100259 3.5898013 1.0603211e-38
-0.97825944 0.83535963 3.6086228 1.3182176e-38
-0.97148567 0.84218383 3.6381023 1.3458403e-38
-0.97024125 0.85408598 3.689518 1.3550232e-38
-0.96609581 0.86376762 3.7313409 1.3917573e-38
-0.95613563 0.86847597 3.7516804 1.3918288e-38
-0.94606632 0.87323594 3.7722425 1.4103038e-38
-0.93588597 0.87804836 3.7930315 1.4195233e-38
-0.92141509 0.87892902 3.7968359 1.3919002e-38
-0.90919733 0.88202542 3.8102117 1.3734968e-38
-0.89059603 0.87892902 3.7968359 1.3551293e-38
-0.8716892 0.87541682 3.7816637 1.3919361e-38
-0.85208505 0.87106586 3.7628682 1.3917565e-38
-0.83349925 0.86761606 3.7479658 1.2443876e-38
-0.82031852 0.86976898 3.7572658 1.3181436e-38
-0.80506957 0.86976898 3.7572658 1.4288861e-38
-0.78864646 0.86847597 3.7516804 1.4105191e-38
-0.77457166 0.86976898 3.7572658 1.4290302e-38
-0.758946 0.86933756 3.7554021 1.4290666e-38
-0.7403993 0.86547381 3.7387116 1.4383226e-38
-0.71255791 0.8503564 3.6734066 1.4107361e-38
-0.6863271 0.83655584 3.6137903 1.4199199e-38
-0.5178979 0.64504397 2.786489 1.4384304e-38
-0.49942014 0.63591599 2.7470577 1.429319e-38
-0.49274084 0.64173728 2.7722046 1.4201001e-38
-0.47334364 0.63087994 2.7253027 1.4293561e-38
-0.45865068 0.62592304 2.7038896 1.4477591e-38
-0.44751707 0.62569958 2.7029243 1.4201721e-38
-0.4353039 0.62391758 2.6952264 1.3832228e-38
-0.42346072 0.62258774 2.6894817 1.3281229e-38
-0.41181394 0.62148386 2.6847131 5.2602222e-39
-0.40063381 0.62104338 2.6828103 1.1070762e-39
-0.38795838 0.61819559 2.6705081 1.0137974e-39
-0.37592664 0.61623925 2.6620572 9.2231923e-40
-0.36448181 0.61515778 2.6573853 1.2907416e-39
-0.34819698 0.60559243 2.6160645 1.0141561e-39
-0.33560815 0.60205585 2.6007869 9.2160037e-40
-0.32360762 0.59937912 2.5892239 1.1981887e-39
-0.31107783 0.59550953 2.5725079 1.2907416e-39
-0.29941639 0.59309119 2.5620611 9.219605e-40
-0.29019666 0.59550953 2.5725079 8.3012501e-40
-0.28567734 0.608114 2.6269572 9.2160317e-40
-0.26840347 0.59349287 2.5637965 9.2160037e-40
-0.25905094 0.59591448 2.5742574 1.013796e-39
-0.25004861 0.59937912 2.5892239 9.219605e-40
-0.2380746 0.59571195 2.5733824 1.1981859e-39
-0.22778532 0.5961172 2.5751328 3.5938275e-39
-0.21859807 0.59958416 2.5901098 1.9085583e-38
-0.20815726 0.59978938 2.5909963 2.3234019e-38
-0.19730401 0.59876478 2.58657 2.0747261e-38
-0.1868702 0.5989694 2.5874541 1.3647836e-38
-0.17636895 0.5989694 2.5874541 1.5029683e-38
-0.16496563 0.59571195 2.5733824 1.4752374e-38
-0.15616703 0.60205585 2.6007869 1.9550521e-38
-0.14646703 0.60559243 2.6160645 2.1210045e-38
-0.13566215 0.60475653 2.6124537 2.1395155e-38
-0.12906775 0.62413979 2.6961861 2.0934897e-38
-0.12000564 0.6340754 2.7391067 2.0288456e-38
-0.10865305 0.63270199 2.7331736 1.9087751e-38
-0.10023824 0.6500684 2.8081939 1.724456e-38
-0.022023788 0.21676987 0.93641198 5.6214041e-39
-0.01820532 0.2165556 0.93548632 4.2388326e-39
-0.014403286 0.21647535 0.93513966 3.7785719e-39
-0.010601451 0.21634175 0.9345625 3.8704088e-39
-0.0067510032 0.21451463 0.9266696 3.6860175e-39
-0.0030103563 0.21596852 0.9329502 3.6852987e-39
0.00075719779 0.21072316 0.91029108 3.409432e-39
0.0043846839 0.20755382 0.89660007 2.9488126e-39
0.0079744495 0.20628348 0.89111239 2.9480951e-39
0.011552977 0.20560588 0.8881852 2.948098e-39
0.015113374 0.20500462 0.88558787 2.8562611e-39
0.018782254 0.2058232 0.88912398 2.9480966e-39
0.022270476 0.20471726 0.88434654 2.9484553e-39
0.025844526 0.20459777 0.88383037 2.8562597e-39
0.029681053 0.20633206 0.8913222 2.8562611e-39
0.033123028 0.20524471 0.88662499 2.8562597e-39
0.036292151 0.20284542 0.87626052 2.9480937e-39
0.040150534 0.20438303 0.88290274 2.764064e-39
0.043470208 0.20315109 0.87758094 2.6718698e-39
0.047196016 0.20386001 0.88064331 2.6722285e-39
0.051862024 0.20824435 0.89958304 2.8562611e-39
0.06222349 0.20628348 0.89111239 2.9480951e-39
0.065816849 0.20621067 0.89079785 2.9484539e-39
0.071938671 0.20308048 0.87727588 2.8559009e-39
0.076143205 0.20481296 0.88475996 2.6722285e-39
0.10673613 0.25151902 1.0865228 2.8562611e-39
0.11111392 0.25144684 1.086211 3.0402922e-39
0.11632341 0.25319049 1.0937432 3.0402922e-39
0.11991355 0.25141078 1.0860552 2.9488154e-39
0.12885851 0.25166348 1.0871469 3.0402908e-39
0.133156 0.25144684 1.086211 3.0402922e-39
0.138 0.25224301 1.0896504 3.0406509e-39
0.14246337 0.25231564 1.0899642 3.0402922e-39
0.14642325 0.25151902 1.0865228 2.8559037e-39
0.15122359 0.25217044 1.0893368 2.7637081e-39
0.15919536 0.25079915 1.0834131 2.6715125e-39
0.16019954 0.2455976 1.0609432 2.5793182e-39
0.16658302 0.24869937 1.0743424 2.5793154e-39
0.16707867 0.24307691 1.0500542 2.3034488e-39
0.17060681 0.24203625 1.0455587 2.2116133e-39
0.1775723 0.24580428 1.061836 2.3034488e-39
0.17725767 0.23955502 1.0348402 2.3952857e-39
0.18173085 0.23991574 1.0363984 4.7063057e-39
0.18459778 0.23818761 1.0289333 1.6045648e-38
0.18594339 0.2346164 1.0135062 1.2073669e-38
0.18922082 0.23358449 1.0090485 2.301288e-39
0.19383274 0.23420881 1.0117453 1.5662467e-39
0.19605257 0.23197676 1.0021033 1.6584423e-39
0.19990794 0.23173138 1.0010433 1.750638e-39
0.20415966 0.23194607 1.0019708 1.7502778e-39
0.2066943 0.23023969 0.9945994 1.8424721e-39
0.21302573 0.23274694 1.0054303 1.8424749e-39
0.21765549 0.2333357 1.0079738 1.8421175e-39
0.19849089 0.20886479 0.90226322 1.5658894e-39
0.20232153 0.20903918 0.90301657 1.4740525e-39
0.20630634 0.20936382 0.90441895 1.5662481e-39
0.20997694 0.20936382 0.90441895 1.6580836e-39
0.2132654 0.20898932 0.90280122 1.8424735e-39
0.21765618 0.20968945 0.90582567 2.0268647e-39
0.22165073 0.20999095 0.90712804 2.1190618e-39
0.23431642 0.21836337 0.94329566 2.3038089e-39
0.23773013 0.21798314 0.94165307 2.3034502e-39
0.23523219 0.21228009 0.9170168 2.3952871e-39
0.24008806 0.21328764 0.92136919 2.3956458e-39
0.24173869 0.21146049 0.91347623 2.3956472e-39
0.24603978 0.211972 0.91568589 2.3034516e-39
0.24948454 0.21174151 0.9146902 2.3030915e-39
0.2545191 0.21284728 0.91946691 2.3949256e-39
0.25995561 0.21425238 0.92553675 2.4874813e-39
0.26426113 0.21469858 0.92746425 2.3956458e-39
0.26640451 0.21044482 0.90908873 2.4878415e-39
0.26989964 0.21029331 0.90843421 2.4874841e-39
0.27358654 0.21029331 0.90843421 2.4874827e-39
0.27538991 0.20886479 0.90226322 2.4874841e-39
0.27941808 0.20913896 0.90344757 2.4874827e-39
0.28080612 0.20745555 0.8961755 2.3952857e-39
0.28320292 0.20655091 0.89226764 2.5793196e-39
0.28574654 0.20577486 0.88891518 2.4874855e-39
0.28830487 0.20502861 0.88569146 2.3956486e-39
0.29241261 0.20538902 0.8872484 2.3952885e-39
0.29608291 0.20543717 0.88745642 2.4874841e-39
0.29901871 0.20498064 0.88548428 2.5800385e-39
0.3023296 0.20478903 0.88465655 2.7640682e-39
0.30584854 0.20474118 0.88444984 2.9484581e-39
0.30940193 0.20471726 0.88434654 2.8562625e-39
0.31299108 0.20471726 0.88434654 2.9484581e-39
0.31680226 0.20486084 0.88496679 3.6853015e-39
0.3205438 0.20495667 0.88538074 5.0678716e-39
0.32455465 0.20522067 0.88652116 7.3727567e-39
0.32903877 0.20577486 0.88891518 8.9393593e-39
0.33323336 0.20613791 0.8904835 9.0311934e-39
0.33796042 0.20681903 0.89342588 8.8471609e-39
0.34251606 0.2073819 0.89585739 9.031192e-39
0.34825358 0.20864101 0.9012965 9.3084964e-39
0.35397637 0.20986523 0.90658492 9.86131e-39
0.35872966 0.21049537 0.90930706 9.8613114e-39
0.36268148 0.21064718 0.90996283 1.022973e-38
0.37047115 0.21300249 0.92013741 1.0414121e-38
0.37755528 0.2149092 0.92837411 1.00457e-38
0.38381755 0.21631505 0.93444717 1.0414841e-38
0.82164872 0.36842221 1.5915264 7.0979887e-39
1.1407108 0.48480898 2.0942991 6.4501488e-40
1.1782179 0.49704608 2.1471612 5.5281785e-40
-1.2553157 0.47682115 2.0243022 8.0188436e-39
-1.2319478 0.47102776 1.999707 1.0508127e-38
-1.1975775 0.46092302 1.9568082 8.2061299e-39
-1.1673094 0.45227268 1.9200839 1.9389949e-39
-1.94419 0.76866859 3.263315 8.75641e-39
-1.9006339 0.75660211 3.2120876 1.207941e-38
-1.8812125 0.75404274 3.2012224 8.4852251e-39
-1.8257607 0.73690546 3.1284673 3.6867392e-39
-1.525596 0.62006646 2.6324377 4.3281499e-39
-1.5191379 0.62179607 2.6397805 9.9524365e-39
-1.3677398 0.56380373 2.3935792 1.3828609e-38
-1.3393933 0.55606836 2.3607392 1.4750564e-38
-1.3211609 0.55245078 2.3453813 1.4750928e-38
-1.2999635 0.54753184 2.3244982 1.3555626e-38
-1.2822618 0.54402417 2.3096068 7.1944877e-39
-1.267475 0.54171056 2.2997847 4.8827586e-39
-1.2566143 0.54105312 2.2969935 7.6464639e-39
-1.2480493 0.54138166 2.2983882 1.3548055e-38
-1.2379695 0.54105312 2.2969935 2.0557089e-38
-1.2267861 0.54023361 2.2935143 2.3232933e-38
-1.2256464 0.54385823 2.3089023 2.3509884e-38
-1.2305361 0.55023485 2.3359737 2.3509886e-38
-1.2324637 0.55537564 2.3577983 2.3509884e-38
-1.2410601 0.56362551 2.3928225 2.3233657e-38
-1.2543424 0.57415038 2.437505 2.2220943e-38
-1.2664683 0.58430904 2.4806325 2.1205707e-38
-1.2646881 0.58816332 2.4969957 1.8809335e-38
-1.2612095 0.59128356 2.5102422 1.5396302e-38
-1.2543488 0.59285611 2.5169184 1.3183598e-38
-1.2412453 0.59147966 2.5110748 1.2998494e-38
-1.2269844 0.58952433 2.5027738 1.1617363e-38
-1.2140175 0.58816332 2.4969957 7.5614696e-39
-1.2046781 0.58855152 2.4986439 4.6083382e-39
-1.1965116 0.58952433 2.5027738 5.803273e-39
-1.1859621 0.58932954 2.5019467 7.6468199e-39
-1.1758078 0.58932954 2.5019467 9.4928863e-39
-1.1695185 0.59128356 2.5102422 1.1062381e-38
-1.1570288 0.59010959 2.5052583 1.0418818e-38
-1.1408211 0.58700168 2.492064 9.9542428e-39
-1.1236794 0.58335334 2.4765754 1.0141508e-38
-1.117283 0.58526784 2.4847033 1.1338615e-38
-1.1017748 0.58240074 2.4725313 1.2260564e-38
-1.089605 0.58126175 2.4676957 1.2445677e-38
-1.0863172 0.58488393 2.4830735 1.2906661e-38
-1.4966093 0.83684242 3.5527408 1.3461274e-38
-1.5112669 0.85325891 3.6224358 1.3092494e-38
-1.5190973 0.86610544 3.6769745 1.309249e-38
-1.4825728 0.85366738 3.6241698 1.3368715e-38
-1.5232826 0.88589722 3.760999 1.327688e-38
-1.5140356 0.88943201 3.7760053 1.3276881e-38
-1.5537305 0.92208433 3.914628 1.3645664e-38
-1.5354611 0.92065626 3.9085653 1.4105205e-38
-1.501766 0.90985262 3.8626993 1.4381435e-38
-1.4937102 0.91451854 3.882508 1.4658379e-38
-1.6082634 0.99515128 4.2248273 1.4749853e-38
-1.5190631 0.95008588 4.0335059 1.5118276e-38
-1.5739703 0.99515128 4.2248273 1.5210829e-38
-1.5568237 0.99515128 4.2248273 1.5671085e-38
-1.5721376 1.0161318 4.3138981 1.5855835e-38
-1.4433497 1.0368088 4.4016805 1.3647824e-38
-1.3682114 0.99515128 4.2248273 1.3186848e-38
-1.1080587 0.81616068 3.4649386 1.2910266e-38
-1.0821103 0.80729342 3.4272933 1.2817353e-38
-1.0633866 0.80365533 3.4118481 1.2816989e-38
-1.0485945 0.80293161 3.4087756 1.30003e-38
-1.0375628 0.80510664 3.4180093 1.3368366e-38
-1.0297343 0.80985975 3.4381883 1.3461641e-38
-1.0232152 0.81578737 3.4633534 1.3277611e-38
-1.0161315 0.82142383 3.4872828 1.3460922e-38
-1.007081 0.825607 3.5050421 1.3001739e-38
-0.99562132 0.82790673 3.5148053 8.8540119e-39
-0.98455596 0.83060604 3.5262649 1.1339707e-38
-0.97387332 0.83371258 3.5394533 1.3735706e-38
-0.96765125 0.84078789 3.5694911 1.3644226e-38
-0.96178007 0.84838778 3.6017559 1.3643867e-38
-0.95810157 0.8581863 3.6433547 1.3643147e-38
-0.95387268 0.8677913 3.6841319 1.4010848e-38
-0.94351184 0.87203479 3.702147 1.410304e-38
-0.93304914 0.87631994 3.7203395 1.4287792e-38
-0.91704881 0.87545955 3.7166867 1.4564735e-38
-0.90641427 0.87977856 3.7350225 1.4197028e-38
-0.90919733 0.89748925 3.8102117 1.4381422e-38
-0.88925809 0.89299506 3.791132 1.4566174e-38
-0.86951756 0.88854563 3.7722425 1.447398e-38
-0.84577954 0.87977856 3.7350225 1.4474697e-38
-0.82898498 0.87804586 3.7276666 1.4198117e-38
-0.81626755 0.88064748 3.7387116 1.4475064e-38
-0.8018859 0.88151813 3.7424078 1.4475782e-38
-0.78475761 0.87934476 3.7331808 1.4383587e-38
-0.76884818 0.87847841 3.7295029 1.4383593e-38
-0.75334078 0.87804586 3.7276666 1.4752376e-38
-0.73279989 0.87160856 3.7003376 1.447651e-38
-0.70401818 0.85489506 3.6293819 1.4661259e-38
-0.6817711 0.84557188 3.5898013 1.4845653e-38
-0.51885271 0.65756309 2.7916265 1.5029686e-38
-0.50014603 0.64800549 2.7510505 1.5214798e-38
-0.49292132 0.65322751 2.7732201 1.5214081e-38
-0.47368464 0.64240313 2.7272661 1.5306275e-38
-0.45914263 0.63757998 2.7067897 1.5489948e-38
-0.44815704 0.63757998 2.7067897 1.5582864e-38
-0.4360801 0.6359883 2.7000325 1.5767258e-38
-0.42421421 0.63463032 2.6942673 1.4848189e-38
-0.41254541 0.63350308 2.6894817 5.3524094e-39
-0.4012025 0.63282865 2.6866183 1.1074364e-39
-0.38878119 0.63036805 2.676172 1.1063518e-39
-0.37685418 0.62859046 2.6686256 1.0141561e-39
-0.36537954 0.62748456 2.6639307 1.1067119e-39
-0.34892038 0.61748999 2.6214995 1.0137974e-39
-0.33653304 0.61429942 2.607954 1.0134359e-39
-0.32471815 0.6119805 2.5981095 1.2907402e-39
-0.31171334 0.60718799 2.5777633 1.1985446e-39
-0.30012736 0.60492235 2.5681448 9.219591e-40
-0.2912854 0.60822344 2.5821593 8.3012361e-40
-0.28848007 0.62484622 2.6527297 9.219591e-40
-0.26904121 0.60533303 2.5698884 9.2160037e-40
-0.26046795 0.60967904 2.5883386 9.219605e-40
-0.2517707 0.61408788 2.6070561 9.2160037e-40
-0.23921293 0.60905433 2.5856867 1.3818568e-39
-0.22887519 0.60947067 2.5874541 4.054084e-39
-0.21987686 0.61366522 2.6052618 1.751716e-38
-0.20923135 0.6134541 2.6043656 2.1573407e-38
-0.19818424 0.6119805 2.5981095 2.0285194e-38
-0.18776861 0.61240083 2.5998938 1.3924061e-38
-0.17715603 0.61219054 2.5990014 1.4845653e-38
-0.16541544 0.60780883 2.580399 1.4752374e-38
-0.15692171 0.61557168 2.6133554 2.0562159e-38
-0.14717902 0.61920524 2.6287816 2.1668504e-38
-0.13617904 0.61770391 2.6224077 2.1945091e-38
-0.1298074 0.63872176 2.711637 2.1575947e-38
-0.12048514 0.64777011 2.750051 2.0561076e-38
-0.10908625 0.64636141 2.7440705 1.9455444e-38
-0.022026511 0.22059762 0.93652779 5.1600658e-39
-0.018200824 0.22029786 0.93525517 4.0540812e-39
-0.014396174 0.22016187 0.9346779 4.1466341e-39
-0.010592299 0.21994464 0.93375564 3.7774957e-39
-0.006760105 0.21856982 0.92791897 3.6860175e-39
-0.0030040632 0.21929552 0.93099988 3.5016263e-39
0.00075556256 0.21395455 0.90832525 3.2250394e-39
0.0043904032 0.21146818 0.89776957 2.7647815e-39
0.0079810256 0.21007317 0.89184719 2.7640668e-39
0.011552977 0.2092106 0.8881852 2.7637067e-39
0.015108073 0.20852563 0.88527721 2.764064e-39
0.018775638 0.20935796 0.88881087 2.8562611e-39
0.022291306 0.20850125 0.88517374 2.7644256e-39
0.025886834 0.20852563 0.88527721 2.7644242e-39
0.029674066 0.20990008 0.89111239 2.764064e-39
0.032983966 0.20796631 0.88290274 2.7644228e-39
0.036179092 0.20575875 0.87353075 2.764064e-39
0.040047787 0.20743412 0.88064331 2.6722285e-39
0.04329956 0.20590129 0.87413585 2.5796742e-39
0.046961129 0.20640175 0.87626052 2.6718698e-39
0.051665578 0.2110927 0.8961755 2.6718698e-39
0.06222349 0.20990008 0.89111239 2.8559023e-39
0.06593322 0.21019697 0.89237279 2.8555408e-39
0.068929337 0.2083064 0.88434654 2.8558981e-39
0.072273657 0.20760316 0.88136095 2.7644228e-39
0.076464899 0.20928426 0.88849795 2.6718712e-39
0.079696767 0.2083064 0.88434654 2.7640668e-39
0.083373562 0.20852563 0.88527721 2.7644256e-39
0.087160125 0.20898993 0.8872484 2.6722285e-39
0.11047989 0.25439531 1.0800129 2.8566198e-39
0.11550576 0.25581855 1.0860552 2.8566198e-39
0.11924641 0.25439531 1.0800129 2.8566198e-39
0.12350634 0.25414154 1.0789355 2.9484567e-39
0.12830578 0.25497729 1.0824836 2.9484567e-39
0.13271804 0.25501373 1.0826385 3.0402936e-39
0.13772249 0.25614926 1.0874592 2.9480951e-39
0.14234042 0.25651771 1.0890235 2.9484539e-39
0.14631827 0.25574517 1.0857437 2.948098e-39
0.15161626 0.25725782 1.0921655 2.8562639e-39
0.15894517 0.25479513 1.0817103 2.8559051e-39
0.16049191 0.25035957 1.0628796 2.579677e-39
0.16660666 0.25309554 1.0744948 2.5793154e-39
0.16826892 0.2491006 1.0575347 2.4871212e-39
0.17268156 0.24927469 1.0582738 2.3952871e-39
0.1787506 0.25177342 1.068882 2.5796784e-39
0.18048951 0.24819918 1.0537078 2.2112546e-39
0.18331176 0.24624567 1.0454143 4.3378833e-39
0.18688366 0.24536477 1.0416746 1.5861258e-38
0.1903518 0.24438964 1.0375347 1.4100522e-38
0.19302839 0.24246243 1.0293529 2.8540974e-39
0.1980678 0.24352194 1.033851 1.5662481e-39
0.19581929 0.23576297 1.000911 1.5666068e-39
0.19985509 0.23573181 1.0007787 1.7506394e-39
0.20343274 0.23517224 0.99840313 1.750638e-39
0.20604466 0.23353995 0.99147338 1.8424749e-39
0.21136957 0.23498632 0.99761373 1.8424749e-39
0.21661726 0.23629405 1.0031656 1.8424749e-39
0.20299949 0.21341684 0.90604246 1.658085e-39
0.20657779 0.21331473 0.90560895 1.7502792e-39
0.21015269 0.21321271 0.90517586 1.6584437e-39
0.21346904 0.21285643 0.90366328 1.6580822e-39
0.21770827 0.21341684 0.90604246 1.7502792e-39
0.22167729 0.21369816 0.90723675 1.8428336e-39
0.23425806 0.22213641 0.94306064 2.0272249e-39
0.2291787 0.21382627 0.90778065 2.211256e-39
0.23317048 0.21410868 0.90897954 2.4874813e-39
0.2379452 0.21508999 0.91314566 2.3952843e-39
0.24060649 0.2141601 0.90919787 2.1194191e-39
0.24506167 0.21483088 0.91204566 2.3034502e-39
0.24969572 0.21563618 0.9154644 2.211256e-39
0.25510776 0.21707988 0.92159355 2.3034488e-39
0.26107267 0.2189455 0.92951393 2.3956472e-39
0.26539907 0.21940343 0.931458 2.3034516e-39
0.26727104 0.21483088 0.91204566 2.4878415e-39
0.27120128 0.21501219 0.91281539 2.4874841e-39
0.27832887 0.21768935 0.92418098 2.4874813e-39
0.27588311 0.21290725 0.90387905 2.5789595e-39
0.27971849 0.21303442 0.90441895 2.5796756e-39
0.28234351 0.21224841 0.90108198 2.6718726e-39
0.28508446 0.21156853 0.89819562 2.6715153e-39
0.28672284 0.21009792 0.89195228 2.4874855e-39
0.28921843 0.20928426 0.88849795 2.3034516e-39
0.29340976 0.20970263 0.89027411 2.3030929e-39
0.29670897 0.20948093 0.88933289 2.3030943e-39
0.29933381 0.20879419 0.88641739 2.39565e-39
0.30240026 0.20842814 0.88486332 2.3960088e-39
0.30577707 0.20828208 0.88424325 2.4878429e-39
0.30929357 0.20823343 0.88403678 2.7640654e-39
0.31302765 0.20833074 0.88444984 2.7640654e-39
0.31680226 0.20845251 0.88496679 2.8566198e-39
0.3205063 0.20852563 0.88527721 3.0406537e-39
0.32447866 0.20876974 0.88631362 3.7778572e-39
0.32869145 0.20916152 0.88797688 5.4362926e-39
0.33280277 0.20948093 0.88933289 7.0958097e-39
0.33744276 0.21012267 0.89205736 8.5705768e-39
0.34186882 0.210619 0.8941645 9.4921688e-39
0.34717897 0.21164386 0.8985154 1.0229732e-38
0.35258308 0.21270409 0.90301657 1.0598514e-38
0.35744175 0.21341684 0.90604246 1.0599232e-38
0.36250719 0.21423729 0.90952557 1.0322284e-38
0.37002143 0.2164738 0.91902047 1.0321206e-38
0.37713906 0.21843596 0.92735064 1.0044265e-38
0.3832027 0.21975492 0.9329502 1.0137896e-38
0.38895425 0.22087084 0.93768775 1.0137535e-38
0.39501035 0.22213641 0.94306064 9.585449e-39
1.1877373 0.51750177 2.1970084 6.4501348e-40
1.1645495 0.50361794 2.1380658 6.4501348e-40
1.1879886 0.50995457 2.1649673 5.5317798e-40
-1.2533051 0.48425996 2.02106 1.0047146e-38
-1.2229035 0.47562605 1.9850265 1.0693237e-38
-1.1895834 0.46573499 1.943746 7.1926969e-39
-1.1625918 0.45820606 1.9123241 1.4772965e-39
