# .PCD v0.7 - Point Cloud Data file format
VERSION 0.7
FIELDS x y z rgb
SIZE 4 4 4 4
TYPE F F F F
COUNT 1 1 1 1
WIDTH 1010
HEIGHT 1
VIEWPOINT 0 0 0 1 0 0 0
POINTS 1010
DATA ascii
0.063105986 0.17099254 0.80963433 6.8214018e-39
0.066229008 0.170573 0.80764782 6.3589915e-39
0.071224026 0.17478697 0.82760066 4.6991073e-39
0.075224258 0.17629009 0.83471781 4.3328429e-39
0.078724824 0.17654313 0.83591592 6.914682e-39
0.082017794 0.17632899 0.83490193 5.5324511e-39
0.085302785 0.17611535 0.83389038 4.9771291e-39
0.088609077 0.1759603 0.83315623 4.1488089e-39
0.090860575 0.17379904 0.82292289 5.1633154e-39
0.093762197 0.1729905 0.81909454 5.6253655e-39
0.097013041 0.17285959 0.81847465 4.333196e-39
0.10021567 0.17265427 0.8175025 4.886381e-39
0.10344417 0.17250526 0.81679696 5.7132564e-39
0.10639185 0.17191175 0.81398678 4.6076249e-39
0.10901563 0.17084637 0.80894226 4.1495264e-39
0.11285342 0.17169024 0.81293792 5.8058037e-39
0.11666637 0.17244944 0.81653267 4.701617e-39
0.12027865 0.17287828 0.81856316 4.2406501e-39
0.12334742 0.17252387 0.81688505 4.7941812e-39
0.12891616 0.17559315 0.83141786 4.3339163e-39
0.13293281 0.17644574 0.8354547 4.4261245e-39
0.13588867 0.17588288 0.83278966 4.3328485e-39
0.13902389 0.17557387 0.83132654 4.42467e-39
0.14291571 0.17621239 0.83434987 5.1615133e-39
0.14593205 0.17576687 0.8322404 4.4243112e-39
0.14982025 0.17636788 0.83508611 4.7019771e-39
0.15293956 0.17605717 0.83361495 5.6235705e-39
0.15613371 0.17584419 0.83260649 5.1629665e-39
0.16000557 0.17638734 0.83517826 4.2413731e-39
0.16308931 0.17605717 0.83361495 3.3190511e-39
0.16638096 0.1759603 0.83315623 3.7793146e-39
0.16650085 0.17257974 0.81714958 3.5956464e-39
0.16839956 0.17113894 0.81032759 4.1495446e-39
0.17192751 0.17137741 0.81145668 4.3335702e-39
0.1752584 0.17141415 0.81163067 3.964059e-39
0.17843765 0.17130396 0.81110895 4.6112192e-39
0.18225676 0.17180093 0.81346202 4.4253902e-39
0.18567792 0.17191175 0.81398678 4.4250357e-39
0.18813197 0.17113894 0.81032759 4.1484488e-39
0.19207858 0.17172712 0.81311256 4.0562546e-39
0.19556765 0.17189327 0.81389922 3.9647792e-39
0.19829531 0.17139578 0.81154364 4.1477243e-39
0.2025661 0.17222655 0.81547725 4.0566091e-39
0.20739478 0.1734973 0.82149422 3.9647792e-39
0.21204028 0.17457706 0.82660669 3.5956352e-39
0.21555984 0.17471057 0.82723892 4.5201026e-39
0.2200231 0.17559315 0.83141786 3.5970687e-39
0.22408646 0.17613475 0.83398223 3.6885497e-39
0.22797346 0.17652366 0.83582366 4.4253986e-39
0.23108503 0.17630954 0.8348099 4.2417333e-39
0.23522532 0.17687513 0.83748794 3.5963596e-39
0.23833428 0.17666017 0.83647007 3.4112439e-39
0.24226445 0.1770514 0.83832252 3.7789502e-39
0.24670486 0.17779954 0.84186488 3.6878406e-39
0.24909674 0.17707101 0.83841538 3.5020032e-39
0.25275138 0.17724767 0.83925182 4.148453e-39
0.25488603 0.17636788 0.83508611 4.1484544e-39
0.25870329 0.17666017 0.83647007 3.6881951e-39
0.26212707 0.17667969 0.83656251 4.6090612e-39
0.26496601 0.17630954 0.8348099 4.5161467e-39
0.26797 0.17605717 0.83361495 3.4112411e-39
0.27246326 0.17677736 0.83702499 3.4116026e-39
0.27847731 0.17845437 0.84496552 3.3190469e-39
0.27981427 0.17712985 0.83869398 3.7793034e-39
0.28296736 0.17697302 0.83795136 3.8732983e-39
0.28662199 0.17712985 0.83869398 3.9636946e-39
0.28890568 0.17644574 0.8354547 5.4377555e-39
0.29509693 0.17813627 0.84345931 4.3324869e-39
0.29745966 0.17750347 0.84046298 3.2261296e-39
0.30370274 0.17917427 0.84837413 3.6871063e-39
0.30411294 0.177405 0.83999676 4.0555371e-39
0.30844611 0.17793804 0.84252065 3.9633415e-39
0.31044903 0.17712985 0.83869398 2.9509874e-39
0.3137486 0.17707101 0.83841538 2.6747565e-39
0.31873974 0.17795785 0.84261447 3.1339382e-39
0.30774009 0.16999269 0.80490017 3.594196e-39
0.32413629 0.17716911 0.83887988 3.5023577e-39
0.31450757 0.17011929 0.80549961 2.765513e-39
0.32977623 0.17654313 0.83591592 2.5822007e-39
0.33287477 0.17638734 0.83517826 3.1346556e-39
0.34740832 0.17516994 0.82941395 3.3190483e-39
0.34916791 0.17436764 0.82561511 3.2261324e-39
0.35328925 0.17474876 0.82741976 3.2272058e-39
0.35844937 0.17563172 0.83160049 3.1332123e-39
0.36358166 0.17648467 0.83563918 3.4112383e-39
0.36778501 0.17687513 0.83748794 3.1353731e-39
0.370242 0.17642626 0.83536255 2.950263e-39
0.3717047 0.17551605 0.83105278 2.7662318e-39
0.37491292 0.17543902 0.83068806 2.9502644e-39
-0.49950853 0.17338844 0.80549961 3.6885427e-39
-0.49618661 0.17336999 0.8054139 3.5048745e-39
-0.49228936 0.17314894 0.80438703 2.9520594e-39
-0.48803952 0.17280011 0.8027665 2.767308e-39
-0.48488429 0.17283677 0.80293679 3.0428159e-39
-0.4781267 0.17158116 0.7971037 3.2275645e-39
-0.47349578 0.17107683 0.79476076 3.228282e-39
-0.47061604 0.17120263 0.79534519 3.0438935e-39
-0.46733901 0.17118464 0.79526162 3.3204832e-39
-0.45388973 0.1697758 0.78871661 3.2279288e-39
-0.45134699 0.17002377 0.78986865 3.3204846e-39
-0.44781426 0.16989969 0.78929222 3.4126774e-39
-0.25032794 0.17066477 0.79284644 5.9912754e-39
-0.25207296 0.17409228 0.80876946 6.3625817e-39
-0.24691775 0.1727818 0.80268139 5.3484367e-39
-0.24464568 0.17348072 0.80592835 5.6239362e-39
-0.2415548 0.17361009 0.80652934 6.3611369e-39
-0.23838305 0.17368409 0.80687314 5.9941579e-39
-0.23510835 0.17368409 0.80687314 5.6239348e-39
-0.23215528 0.17392507 0.80799264 5.8083247e-39
-0.2286564 0.17375816 0.80721724 4.9796458e-39
-0.22569311 0.17399934 0.80833769 5.3466305e-39
-0.22253124 0.17409228 0.80876946 6.0852745e-39
-0.21924883 0.17409228 0.80876946 5.1633154e-39
-0.21647517 0.17450239 0.81067467 5.4406282e-39
-0.21357381 0.17482063 0.81215304 5.5324721e-39
-0.21066183 0.17514002 0.81363684 5.9005343e-39
-0.20798552 0.17566863 0.81609255 5.90017e-39
-0.20562649 0.17648667 0.81989288 5.7172151e-39
-0.20562649 0.17648667 0.81989288 6.0863577e-39
-0.20562649 0.17648667 0.81989288 5.9941705e-39
-0.20562649 0.17648667 0.81989288 7.0104846e-39
-0.20562649 0.17648667 0.81989288 7.468953e-39
-0.20562649 0.17648667 0.81989288 9.3121468e-39
-0.20562649 0.17648667 0.81989288 1.2450405e-38
-0.20562649 0.17648667 0.81989288 2.0932738e-38
-0.20562649 0.17648667 0.81989288 1.8814775e-38
-0.20562649 0.17648667 0.81989288 9.039569e-39
-0.20562649 0.17648667 0.81989288 2.6755076e-39
-0.20562649 0.17648667 0.81989288 9.2198432e-41
-0.20562649 0.17648667 0.81989288 2.7550649e-40
-0.20562649 0.17648667 0.81989288 8.2050355e-39
-0.20562649 0.17648667 0.81989288 1.429649e-38
-0.20562649 0.17648667 0.81989288 6.5513324e-39
-0.20562649 0.17648667 0.81989288 7.8388132e-39
-0.20562649 0.17648667 0.81989288 7.6544135e-39
-0.20562649 0.17648667 0.81989288 7.929913e-39
-0.20562649 0.17648667 0.81989288 7.469295e-39
-0.14187162 0.18003511 0.83637768 8.0224729e-39
-0.13873772 0.18037386 0.83795136 6.8260878e-39
-0.13517229 0.18015453 0.83693242 5.3477193e-39
-0.1314269 0.17967783 0.83471781 6.2693028e-39
-0.12816635 0.17985629 0.83554691 7.0079455e-39
-0.12463771 0.17965801 0.83462584 6.1774771e-39
-0.11973242 0.17740887 0.82417709 6.7310097e-39
-0.11428491 0.17420395 0.80928814 7.8377159e-39
-0.11342531 0.1780096 0.82696784 6.9150422e-39
-0.10962598 0.17729306 0.82363909 6.7302964e-39
-0.10685282 0.17824323 0.82805324 6.5487778e-39
-0.10327753 0.1778736 0.82633603 5.7175794e-39
-0.099155426 0.17650577 0.81998169 5.9019721e-39
-0.096749634 0.17820425 0.82787216 5.9938076e-39
-0.092791043 0.17706192 0.82256526 6.639177e-39
-0.08898855 0.1761433 0.81829774 7.1912661e-39
-0.085399792 0.17559291 0.81574082 8.0195793e-39
-0.082018383 0.1754417 0.81503832 6.5462555e-39
-0.078668185 0.17534731 0.81459981 5.0732988e-39
-0.075273022 0.17514002 0.81363684 1.3186862e-38
-0.071847312 0.17483938 0.81224018 2.2679025e-38
-0.068499371 0.17470817 0.81163067 2.314074e-38
-0.065149479 0.17455848 0.8109352 2.2588655e-38
-0.06185165 0.17453977 0.8108483 2.2220226e-38
-0.058155946 0.17333311 0.8052426 2.2772314e-38
-0.054545559 0.17225218 0.80022097 2.2588295e-38
-0.051422853 0.17267194 0.80217111 2.1485542e-38
-0.048065364 0.17230682 0.80047482 2.2036923e-38
-0.044722047 0.17194322 0.79878569 2.1576304e-38
-0.041462656 0.17187069 0.79844874 2.2773041e-38
-0.038662497 0.17385085 0.80764782 2.2865231e-38
-0.035380863 0.17383231 0.8075617 2.2402106e-38
-0.032079402 0.17370261 0.80695915 1.9639467e-38
-0.028566837 0.17227039 0.8003056 2.0373048e-38
-0.025308076 0.17219758 0.79996735 2.0556728e-38
-0.02211982 0.17265366 0.80208611 1.9452203e-38
-0.018882537 0.17281844 0.80285162 1.9819893e-38
-0.015702404 0.17368409 0.80687314 1.8899021e-38
-0.012439622 0.17385085 0.80764782 2.102242e-38
-0.0091559011 0.17373964 0.80713123 2.2220599e-38
-0.0058901855 0.1740365 0.80851036 1.9180679e-38
-0.0026093828 0.17407368 0.80868304 2.166886e-38
0.00067303772 0.17416671 0.80911517 2.0194454e-38
0.0039746934 0.174952 0.81276339 1.6685995e-38
0.0072670733 0.17480187 0.81206596 1.94522e-38
0.010574206 0.17498957 0.81293792 2.0471027e-38
0.01393338 0.1757444 0.81644458 1.4197424e-38
0.017319785 0.17648667 0.81989288 1.0142988e-38
0.020786911 0.17767966 0.8254351 1.2633681e-38
0.024250653 0.17851658 0.82932311 9.775999e-39
0.027680157 0.17892818 0.83123529 1.5761832e-38
0.031101553 0.17920363 0.83251494 1.410557e-38
0.034231897 0.17791243 0.82651645 1.4020215e-38
0.037541252 0.17769903 0.8255251 1.4386845e-38
0.040216353 0.17476438 0.81189179 1.420353e-38
0.043826327 0.17602915 0.81776744 1.530844e-38
0.04758212 0.17766029 0.8253451 8.7611072e-39
0.05044784 0.17597212 0.8175025 5.253353e-39
0.053522963 0.17517766 0.81381178 5.9008903e-39
0.056467716 0.17407368 0.80868304 5.9938104e-39
0.059400808 0.173057 0.80395997 4.794191e-39
0.062253833 0.17192508 0.79870141 4.2406486e-39
0.064696826 0.16982888 0.7889632 5.1618805e-39
0.06975989 0.17448372 0.81058788 5.5299511e-39
0.072846897 0.17399934 0.80833769 6.1771142e-39
0.078223884 0.17879076 0.83059692 8.2057796e-39
0.081909403 0.17947994 0.83379853 6.6380896e-39
0.085087232 0.17904612 0.83178324 5.4388275e-39
0.088288449 0.17869274 0.83014154 5.0722058e-39
0.090447664 0.17633389 0.81918317 5.0725687e-39
0.093358181 0.17555508 0.81556511 4.7941756e-39
0.09646035 0.17517766 0.81381178 3.9640618e-39
0.099410594 0.17455848 0.8109352 4.5168754e-39
0.1028009 0.1747269 0.81171769 3.9636974e-39
0.10475869 0.1725257 0.80149174 4.5168656e-39
0.10771509 0.17205215 0.79929167 4.1502481e-39
0.1119757 0.17362858 0.80661523 5.7121676e-39
0.1155695 0.17411089 0.80885583 4.2402815e-39
0.11911952 0.17450239 0.81067467 4.9778564e-39
0.12200468 0.17392507 0.80799264 4.5175929e-39
0.12576714 0.17459588 0.81110895 4.793098e-39
0.12885198 0.17431574 0.80980754 5.1633224e-39
0.13297781 0.1754228 0.81495059 4.3328415e-39
0.13654988 0.17576335 0.81653267 4.3331946e-39
0.14111178 0.17733166 0.82381839 4.240999e-39
0.14396961 0.17673548 0.8210488 4.701624e-39
0.14904757 0.17883001 0.83077919 4.7941812e-39
0.15124097 0.1774475 0.82435656 4.0566161e-39
0.15325171 0.17591514 0.81723779 4.2410102e-39
0.15559433 0.17482063 0.81215304 4.1470167e-39
0.15851639 0.17440902 0.81024086 3.5959981e-39
0.16149367 0.17407368 0.80868304 4.1491705e-39
0.16523463 0.17455848 0.8109352 3.9651422e-39
0.16811167 0.17412949 0.80894226 5.6239586e-39
0.17143141 0.17416671 0.80911517 4.0569889e-39
0.17484602 0.17429709 0.80972093 2.9495511e-39
0.17805614 0.17422256 0.80937469 3.5959953e-39
0.18163227 0.17450239 0.81067467 3.0424642e-39
0.1848828 0.17446503 0.8105011 3.4112467e-39
0.18785049 0.17416671 0.80911517 3.9662142e-39
0.19160528 0.17459588 0.81110895 4.2417305e-39
0.19464694 0.17437169 0.81006747 3.7800362e-39
0.1978711 0.17431574 0.80980754 3.5027221e-39
0.20137313 0.17450239 0.81067467 3.9636988e-39
0.20605329 0.17568757 0.81618053 4.2406444e-39
0.20972753 0.17599113 0.81759077 3.5949163e-39
0.21302274 0.17597212 0.8175025 3.6881909e-39
0.21877378 0.17795129 0.82669693 3.9640548e-39
0.22322582 0.17883001 0.83077919 3.6889084e-39
0.22762164 0.17963821 0.83453381 4.1495292e-39
0.23080508 0.17947994 0.83379853 3.5952778e-39
0.23480973 0.1799556 0.83600825 3.3186895e-39
0.2379137 0.17973727 0.83499402 3.4119642e-39
0.24154231 0.17991586 0.83582366 3.6885567e-39
0.24531367 0.18019436 0.83711749 3.4123327e-39
0.24799818 0.17967783 0.83471781 5.621788e-39
0.25163561 0.17985629 0.83554691 4.3314009e-39
0.25429699 0.17934169 0.83315623 4.0566119e-39
0.25816137 0.17967783 0.83471781 3.5041584e-39
0.2615779 0.17969763 0.8348099 3.5956338e-39
0.26449937 0.17938116 0.83333963 3.5952722e-39
0.26743993 0.17908548 0.83196604 3.6867518e-39
0.27153262 0.17955904 0.83416599 3.9644135e-39
0.27570793 0.1800749 0.83656251 3.7796663e-39
0.27894902 0.17997546 0.83610058 4.1480901e-39
0.28224885 0.17991586 0.83582366 3.504157e-39
0.2857357 0.17997546 0.83610058 3.4101635e-39
0.28836474 0.17949972 0.83389038 4.0544553e-39
0.29284579 0.18017444 0.83702499 4.4235938e-39
0.29611191 0.18009481 0.83665496 3.7792992e-39
0.30027071 0.18055372 0.8387869 4.1484418e-39
0.30243519 0.1798166 0.83536255 3.1342941e-39
0.30704516 0.18053372 0.83869398 3.410881e-39
0.30867091 0.17949972 0.83389038 3.3190427e-39
0.31236494 0.17967783 0.83471781 2.7669507e-39
0.30286342 0.17234325 0.8006441 3.2275715e-39
0.30479133 0.17159922 0.79718763 3.5952722e-39
0.3093296 0.17232503 0.80055946 3.5030752e-39
0.31109837 0.17150894 0.79676813 3.5027151e-39
0.31733778 0.17314894 0.80438703 3.3190469e-39
0.32142201 0.1735916 0.80644339 2.8580715e-39
0.3244876 0.17348072 0.80592835 2.7658773e-39
0.34409106 0.17683136 0.82149422 3.2275701e-39
0.34878758 0.17752482 0.82471579 3.1350101e-39
0.35282651 0.1778736 0.82633603 3.3194056e-39
0.3580561 0.17881039 0.83068806 2.3052537e-39
0.36354154 0.17985629 0.83554691 3.4108824e-39
0.36741921 0.18009481 0.83665496 3.5956366e-39
0.37077382 0.1800749 0.83656251 2.9509818e-39
0.37101236 0.1785557 0.82950485 2.8577058e-39
0.37319314 0.17799015 0.82687753 2.8580659e-39
-0.49565887 0.17529608 0.79929167 3.6881839e-39
-0.49345684 0.175667 0.80098295 3.1364507e-39
-0.48917097 0.17529608 0.79929167 3.2293652e-39
-0.48577318 0.17524058 0.79903859 3.229005e-39
-0.48126045 0.17477943 0.79693586 3.227926e-39
-0.47497621 0.17366432 0.79185134 3.1360877e-39
-0.47136804 0.17351912 0.79118931 3.2286435e-39
-0.46737549 0.17322947 0.78986865 3.1357304e-39
-0.46455753 0.17337418 0.79052842 3.4119586e-39
-0.45976493 0.17277883 0.78781384 3.5967086e-39
-0.45590338 0.17252749 0.78666776 3.3201245e-39
-0.45294601 0.17261717 0.78707671 3.3204832e-39
-0.44979838 0.17263511 0.78715855 3.1368108e-39
-0.44618616 0.17247373 0.78642267 3.1360891e-39
-0.44248885 0.17227687 0.78552508 3.3208405e-39
-0.36241099 0.17209831 0.78471088 5.0711226e-39
-0.2501184 0.173737 0.7921828 5.8083191e-39
-0.25062719 0.17635736 0.80413073 5.8083303e-39
-0.24610887 0.1754628 0.80005187 5.347369e-39
-0.24433357 0.1765261 0.80490017 4.9785752e-39
-0.24160628 0.1769211 0.80670118 5.0714771e-39
-0.23835766 0.17693995 0.80678719 5.1643944e-39
-0.23510835 0.17695881 0.80687314 5.6257271e-39
-0.23230404 0.17731787 0.80851036 6.1785393e-39
-0.22846152 0.1768834 0.80652934 5.9937949e-39
-0.22514023 0.17684573 0.8063575 6.3622131e-39
-0.22227006 0.17716651 0.8078202 6.547689e-39
-0.21929568 0.1774126 0.80894226 5.9948823e-39
-0.21647517 0.17779253 0.81067467 6.4540612e-39
-0.21366549 0.17819323 0.81250167 5.9927243e-39
-0.21066183 0.17844218 0.81363684 5.9015993e-39
-0.20771684 0.17874955 0.81503832 6.2696644e-39
-0.20771684 0.17874955 0.81503832 5.9030455e-39
-0.20771684 0.17874955 0.81503832 6.4558675e-39
-0.20771684 0.17874955 0.81503832 7.1012341e-39
-0.20771684 0.17874955 0.81503832 8.1153874e-39
-0.20771684 0.17874955 0.81503832 8.1143182e-39
-0.20771684 0.17874955 0.81503832 8.7582597e-39
-0.20771684 0.17874955 0.81503832 1.2635159e-38
-0.20771684 0.17874955 0.81503832 2.1209323e-38
-0.20771684 0.17874955 0.81503832 1.835416e-38
-0.20771684 0.17874955 0.81503832 8.7622646e-39
-0.20771684 0.17874955 0.81503832 2.6751446e-39
-0.20771684 0.17874955 0.81503832 9.2197031e-41
-0.20771684 0.17874955 0.81503832 2.7550649e-40
-0.20771684 0.17874955 0.81503832 1.0045343e-38
-0.20771684 0.17874955 0.81503832 1.4294688e-38
-0.20771684 0.17874955 0.81503832 7.5643983e-39
-0.20771684 0.17874955 0.81503832 7.7462518e-39
-0.20771684 0.17874955 0.81503832 6.9175701e-39
-0.20771684 0.17874955 0.81503832 6.8246542e-39
-0.20771684 0.17874955 0.81503832 6.6402588e-39
-0.13686688 0.17695881 0.80687314 7.1937913e-39
-0.13374896 0.17716651 0.8078202 6.0892388e-39
-0.1300541 0.1766012 0.8052426 5.9030469e-39
-0.1270292 0.17693995 0.80678719 6.8239185e-39
-0.12397943 0.17726108 0.80825138 6.8235598e-39
-0.12113883 0.17790684 0.81119585 6.4544256e-39
-0.11788446 0.17796405 0.81145668 6.9161128e-39
-0.11418726 0.17733681 0.80859667 6.1771156e-39
-0.11140529 0.17813587 0.81224018 5.9948866e-39
-0.1080856 0.17809767 0.81206596 7.1912703e-39
-0.10489106 0.17826976 0.81285065 5.9934474e-39
-0.10208531 0.17913523 0.81679696 6.361867e-39
-0.098114036 0.17794497 0.81136972 6.1767583e-39
-0.095620386 0.179445 0.81820929 5.8094135e-39
-0.092011288 0.17888434 0.81565297 6.5458995e-39
-0.088529259 0.17853811 0.81407428 6.6384511e-39
-0.084987715 0.17804037 0.81180471 6.17711e-39
-0.081622966 0.17788778 0.81110895 5.7157731e-39
-0.078305893 0.17783062 0.8108483 5.5331923e-39
-0.074942805 0.17765938 0.81006747 1.0048581e-38
-0.071525022 0.17733681 0.80859667 2.0833299e-38
-0.068185054 0.17718542 0.80790639 2.0005022e-38
-0.064719677 0.17667636 0.80558532 1.7613346e-38
-0.061554983 0.17697768 0.80695915 1.9272488e-38
-0.057362799 0.17419267 0.79426044 2.2679396e-38
-0.053935569 0.17353725 0.79127204 2.1391551e-38
-0.050873049 0.17404659 0.79359442 2.1118207e-38
-0.047592361 0.17382795 0.79259747 2.2495026e-38
-0.044380229 0.17384614 0.79268044 2.1760332e-38
-0.041102868 0.17359169 0.79152018 1.733351e-38
-0.038323175 0.17557412 0.80055946 1.7145507e-38
-0.035033334 0.17537014 0.79962933 1.7423187e-38
-0.031657614 0.17465073 0.79634911 1.6785042e-38
-0.028247338 0.1735554 0.79135472 1.9458307e-38
-0.025067046 0.17377336 0.79234856 1.7889537e-38
-0.021920102 0.17432068 0.79484415 1.8628936e-38
-0.01868636 0.1742475 0.79451054 2.092985e-38
-0.015587777 0.175667 0.80098295 2.0098649e-38
-0.012390714 0.17643231 0.80447251 2.0007161e-38
-0.0091034928 0.17600217 0.80251122 2.147978e-38
-0.0058695008 0.17669517 0.80567104 1.6505544e-38
-0.0025996638 0.17669517 0.80567104 1.9915336e-38
0.0006697452 0.17658243 0.80515695 1.6781422e-38
0.0039593917 0.17756438 0.80963433 1.4662372e-38
0.0072429897 0.17750743 0.80937469 1.7975644e-38
0.010526733 0.17748846 0.80928814 1.8347672e-38
0.013840839 0.17786872 0.81102204 1.4847465e-38
0.017136065 0.17790684 0.81119585 1.4660577e-38
0.020461209 0.17819323 0.81250167 1.4562945e-38
0.023789406 0.178423 0.8135494 1.3272596e-38
0.027225794 0.17930934 0.81759077 1.7609717e-38
0.03053082 0.17923193 0.81723779 1.0598542e-38
0.033554219 0.17767839 0.8101542 1.6508432e-38
0.036980756 0.17834635 0.81319988 1.3464895e-38
0.039954986 0.17690225 0.80661523 1.3277987e-38
0.043201037 0.17678924 0.80609995 1.558538e-38
0.046413314 0.17656365 0.80507135 1.291278e-38
0.049643762 0.17643231 0.80447251 6.4544368e-39
0.052846964 0.17622633 0.80353332 5.8079716e-39
0.055292413 0.17366432 0.79185134 5.2544418e-39
0.058207847 0.17277883 0.78781384 5.1636896e-39
0.061366897 0.17267102 0.78732222 5.623209e-39
0.064368144 0.17215185 0.78495497 7.8362712e-39
0.06760297 0.17227687 0.78552508 5.2544418e-39
0.070805736 0.17231263 0.7856881 5.0696862e-39
0.073818274 0.17190231 0.78381723 4.978571e-39
0.081229508 0.18134606 0.82687753 4.700545e-39
0.084668636 0.18152449 0.82769114 4.701624e-39
0.087979749 0.18142532 0.82723892 5.4399051e-39
0.090291351 0.17934808 0.81776744 5.3473577e-39
0.093137451 0.17844218 0.81363684 4.8849377e-39
0.096315406 0.17821236 0.81258887 5.4381002e-39
0.099357381 0.17775448 0.8105011 3.4119642e-39
0.10263583 0.17773545 0.81041431 4.2417234e-39
0.10421807 0.17487146 0.79735553 4.6101416e-39
0.10754477 0.17501892 0.79802793 5.6246537e-39
0.11171385 0.17648858 0.80472904 4.7008995e-39
0.11516348 0.17677042 0.80601412 4.5165125e-39
0.11883957 0.17737469 0.80876946 4.8849292e-39
0.12170594 0.17677042 0.80601412 4.5165167e-39
0.12531069 0.17724216 0.80816513 4.8845789e-39
0.12863185 0.17729893 0.808424 4.3324855e-39
0.13237932 0.1779259 0.81128275 4.1491719e-39
0.13600715 0.17836551 0.8132872 4.4253902e-39
0.1396379 0.17878804 0.8152138 3.871499e-39
0.14317772 0.17907728 0.81653267 3.9644219e-39
0.14730187 0.18006773 0.8210488 4.2402899e-39
0.14964417 0.17888434 0.81565297 4.4253958e-39
0.15256004 0.178423 0.8135494 4.7945315e-39
0.15532774 0.17781158 0.81076151 4.792012e-39
0.15865222 0.17784967 0.8109352 5.7154074e-39
0.16157997 0.17745052 0.80911517 4.7938196e-39
0.16525233 0.17786872 0.81102204 4.2406402e-39
0.16795015 0.17724216 0.80816513 4.9774962e-39
0.17124839 0.17726108 0.80825138 4.6087123e-39
0.17456597 0.17729893 0.808424 4.3317611e-39
0.17763834 0.17709093 0.80747557 3.7785915e-39
0.18128286 0.17745052 0.80911517 2.9502728e-39
0.18454695 0.17743155 0.80902874 5.2562355e-39
0.18742983 0.17705315 0.80730337 7.0075825e-39
0.19099142 0.17731787 0.80851036 5.5310203e-39
0.19367298 0.17677042 0.80601412 3.7800334e-39
0.19675569 0.1766012 0.8052426 3.1350242e-39
0.20015152 0.17671397 0.80575681 4.0566245e-39
0.20442249 0.17758337 0.80972093 3.6885609e-39
0.20804252 0.17786872 0.81102204 4.2413633e-39
0.21135671 0.17788778 0.81110895 3.9644149e-39
0.21650425 0.1794256 0.8181209 3.7807411e-39
0.22073101 0.18016542 0.82149422 4.2413661e-39
0.22607659 0.18178284 0.82886916 4.1488202e-39
0.22966687 0.18196213 0.82968664 4.0566119e-39
0.2342923 0.18294452 0.83416599 4.1477299e-39
0.23762542 0.18290421 0.83398223 3.8718619e-39
0.2411164 0.18298484 0.83434987 3.1350214e-39
0.24504273 0.18338905 0.83619291 3.4105306e-39
0.2476705 0.18282366 0.83361495 4.2413633e-39
0.25135818 0.18304537 0.83462584 4.149525e-39
0.25323799 0.18196213 0.82968664 3.3190553e-39
0.25767839 0.18272308 0.83315623 3.5960023e-39
0.26034352 0.18222174 0.83087039 3.2275729e-39
0.2615912 0.18075381 0.82417709 3.3197714e-39
0.26563016 0.1812273 0.82633603 3.595638e-39
0.26992664 0.18186249 0.82923228 3.8725808e-39
0.27506965 0.18304537 0.83462584 3.687835e-39
0.27821162 0.18288408 0.83389038 3.7785901e-39
0.28119338 0.18262258 0.83269805 3.7800264e-39
0.28538901 0.18314631 0.83508611 3.7796649e-39
0.28820601 0.18278341 0.83343142 3.780025e-39
0.29278103 0.18353096 0.83683991 3.7789446e-39
0.29542631 0.18306555 0.83471781 3.594559e-39
0.28875381 0.17690225 0.80661523 4.7001891e-39
0.30186895 0.18286394 0.83379853 3.2261338e-39
0.29432905 0.1763199 0.80395997 3.2275715e-39
0.29905275 0.17718542 0.80790639 3.687828e-39
0.30155933 0.17673278 0.80584258 3.3186867e-39
0.3006379 0.17430238 0.79476076 3.135013e-39
0.30335394 0.17401011 0.79342806 3.2268512e-39
0.30747634 0.17452224 0.79576319 2.7669507e-39
0.30946991 0.17382795 0.79259747 2.9509818e-39
0.31502828 0.17512968 0.79853296 3.2279302e-39
0.33865261 0.17731787 0.80851036 3.22721e-39
0.34499189 0.17890362 0.81574082 3.3190413e-39
0.3489041 0.17921257 0.81714958 3.0424572e-39
0.35317349 0.17969745 0.81936049 2.5822021e-39
0.35867268 0.18079318 0.82435656 3.0431775e-39
0.36138874 0.18047875 0.82292289 3.0435418e-39
0.35983947 0.17805946 0.81189179 2.766599e-39
0.36344635 0.17821236 0.81258887 2.8580715e-39
0.36650825 0.17809767 0.81206596 2.8580673e-39
-0.48982924 0.17760251 0.79509461 2.9513406e-39
-0.48537895 0.177156 0.79309565 3.2286421e-39
-0.48332468 0.17758387 0.7950111 3.321558e-39
-0.47954416 0.17737898 0.79409385 3.321558e-39
-0.47413316 0.17656413 0.79044592 3.3204832e-39
-0.47072855 0.17649041 0.79011595 3.5041542e-39
-0.4663052 0.17603114 0.78805983 3.9647708e-39
-0.46402457 0.17637998 0.78962147 3.8729339e-39
-0.45986062 0.17601281 0.78797781 3.3197615e-39
-0.45604554 0.17577499 0.7869131 3.3190413e-39
-0.4525696 0.17566544 0.78642267 3.5956296e-39
-0.44839975 0.17528309 0.78471088 3.5963484e-39
-0.44042185 0.17339599 0.77626276 3.5045087e-39
-0.43803489 0.17369877 0.77761817 3.320479e-39
-0.43898195 0.1753376 0.78495497 3.1364479e-39
-0.43462458 0.17486621 0.78284466 3.7814586e-39
-0.43220714 0.17517415 0.7842232 4.1488047e-39
-0.36181095 0.17499287 0.78341168 5.7161277e-39
-0.34880424 0.17484814 0.78276372 4.2431612e-39
-0.34580612 0.17493857 0.78316861 4.4261175e-39
-0.3307347 0.17537397 0.78511781 5.3466207e-39
-0.24918775 0.17405632 0.77921891 4.3317527e-39
-0.25014457 0.17697062 0.79226565 4.5172243e-39
-0.24682583 0.17689657 0.79193419 3.2272128e-39
-0.24422486 0.17734177 0.79392731 5.2537202e-39
-0.24199237 0.17807004 0.79718763 6.2693084e-39
-0.24024951 0.17918321 0.80217111 5.9927187e-39
-0.23512544 0.17777054 0.79584682 7.3720491e-39
-0.23194423 0.17780793 0.79601419 7.4671131e-39
-0.22701888 0.17649041 0.79011595 6.8231857e-39
-0.22397581 0.17661944 0.79069358 6.4526137e-39
-0.2207437 0.17660099 0.79061097 7.098339e-39
-0.21773963 0.17676714 0.79135472 7.2827303e-39
-0.21390186 0.17625129 0.78904539 6.454057e-39
-0.21215884 0.17747205 0.79451054 7.3724204e-39
-0.2108818 0.17912628 0.80191618 7.097267e-39
-0.21002983 0.1811991 0.81119585 6.3622187e-39
-0.20689274 0.18133511 0.81180471 5.8104911e-39
-0.20689274 0.18133511 0.81180471 6.6399042e-39
-0.20689274 0.18133511 0.81180471 6.6402602e-39
-0.20689274 0.18133511 0.81180471 7.3778224e-39
-0.20689274 0.18133511 0.81180471 8.3905408e-39
-0.20689274 0.18133511 0.81180471 9.7723948e-39
-0.20689274 0.18133511 0.81180471 1.0787285e-38
-0.20689274 0.18133511 0.81180471 1.263445e-38
-0.20689274 0.18133511 0.81180471 2.1301879e-38
-0.20689274 0.18133511 0.81180471 1.817013e-38
-0.20689274 0.18133511 0.81180471 8.5782307e-39
-0.20689274 0.18133511 0.81180471 2.3989165e-39
-0.20689274 0.18133511 0.81180471 9.219563e-41
-0.20689274 0.18133511 0.81180471 1.8367099e-40
-0.20689274 0.18133511 0.81180471 1.0506684e-38
-0.20689274 0.18133511 0.81180471 1.3924116e-38
-0.20689274 0.18133511 0.81180471 8.3930758e-39
-0.20689274 0.18133511 0.81180471 7.9292081e-39
-0.20689274 0.18133511 0.81180471 7.839525e-39
-0.20689274 0.18133511 0.81180471 8.9429957e-39
-0.20689274 0.18133511 0.81180471 9.5004799e-39
-0.13569547 0.17869096 0.79996735 7.3789084e-39
-0.13237885 0.1785966 0.79954493 6.7335292e-39
-0.12909298 0.17854004 0.79929167 7.6533247e-39
-0.12572956 0.17837055 0.79853296 6.4547857e-39
-0.12312503 0.17929719 0.80268139 6.1785491e-39
-0.11996908 0.17944941 0.80336279 6.1789135e-39
-0.11677057 0.17954466 0.80378926 5.9012448e-39
-0.11348427 0.17950654 0.80361861 5.9938132e-39
-0.11055133 0.18004164 0.80601412 6.5484289e-39
-0.10707492 0.17969729 0.80447251 6.9154093e-39
-0.10437557 0.1806764 0.80885583 6.7331789e-39
-0.10149401 0.18139346 0.81206596 7.0083126e-39
-0.09749756 0.18009916 0.80627167 6.1778317e-39
-0.095014542 0.18160772 0.81302524 5.9930817e-39
-0.09166564 0.18151027 0.81258887 5.9008889e-39
-0.088225685 0.18121852 0.81128275 5.902328e-39
-0.084615722 0.18054138 0.80825138 5.7172193e-39
-0.080886379 0.17954466 0.80378926 5.5331867e-39
-0.077525407 0.17931621 0.8027665 6.0863675e-39
-0.073844545 0.17829533 0.7981962 8.662062e-39
-0.070486143 0.17799507 0.79685199 2.1014481e-38
-0.066998236 0.17732318 0.79384404 1.9822425e-38
-0.063662916 0.17700766 0.79243153 1.650663e-38
-0.060377296 0.1768041 0.79152018 1.9730599e-38
-0.056867622 0.17588468 0.78740412 2.1754583e-38
-0.053621732 0.1757202 0.78666776 2.1756358e-38
-0.050491977 0.17593957 0.78764987 1.9078037e-38
-0.047324821 0.17604947 0.78814185 2.1110999e-38
-0.04413991 0.17610447 0.78838807 2.3048545e-38
-0.040867869 0.17579326 0.78699487 1.4474712e-38
-0.037744455 0.1761228 0.78847021 1.3551302e-38
-0.034540832 0.17610447 0.78838807 1.9822055e-38
-0.031383622 0.17634319 0.78945678 1.7982869e-38
-0.028170779 0.17628804 0.7892099 1.8814398e-38
-0.024985984 0.17641677 0.78978622 1.5306628e-38
-0.021855855 0.17702618 0.7925145 1.5581793e-38
-0.018635513 0.17698914 0.79234856 1.9454004e-38
-0.01547156 0.17758387 0.7950111 1.4290693e-38
-0.01227851 0.17807004 0.79718763 1.9732373e-38
-0.0090392958 0.17799507 0.79685199 2.1299329e-38
-0.0058440026 0.17918321 0.80217111 1.6046724e-38
-0.0025905664 0.17933522 0.80285162 1.8165064e-38
0.00066811097 0.17941132 0.80319232 1.7796988e-38
0.0039496766 0.18040657 0.80764782 1.2451839e-38
0.0072275363 0.18040657 0.80764782 1.4939673e-38
0.010486378 0.18007998 0.80618578 1.7428584e-38
0.013812725 0.1807923 0.80937469 1.8807205e-38
0.017075688 0.18056066 0.80833769 1.3830446e-38
0.020358521 0.18057995 0.808424 1.29056e-38
0.023669861 0.18081163 0.80946124 1.8989413e-38
0.027094128 0.18174435 0.81363684 1.7794466e-38
0.030376706 0.18162723 0.81311256 1.6957142e-38
0.033396974 0.18011835 0.8063575 1.8996237e-38
0.036716521 0.18034886 0.80738944 1.5861597e-38
0.039190874 0.17673019 0.79118931 1.4013352e-38
0.042212248 0.17593957 0.78764987 1.5676106e-38
0.045508374 0.1763248 0.78937447 1.770119e-38
0.048590478 0.17588468 0.78740412 7.3760273e-39
0.051823907 0.17601281 0.78797781 5.1636769e-39
0.054947589 0.17577499 0.7869131 5.5302987e-39
0.058050793 0.17550136 0.7856881 6.0852787e-39
0.061176039 0.17531942 0.7848736 5.3484227e-39
0.06413541 0.17470363 0.78211683 6.9139604e-39
0.067274898 0.17461345 0.78171301 4.8867355e-39
0.069784604 0.17297035 0.77435726 4.886004e-39
0.073673353 0.17473973 0.78227842 5.2558698e-39
0.078403682 0.17827652 0.79811203 4.1491691e-39
0.080014877 0.17472169 0.78219759 4.7023415e-39
0.086486645 0.18164675 0.81319988 5.3480696e-39
0.089777395 0.18162723 0.81311256 4.8870957e-39
0.092758641 0.18100515 0.81032759 5.8065282e-39
0.096098803 0.18110208 0.81076151 5.4373772e-39
0.096355617 0.17557424 0.78601438 6.1756681e-39
0.099804722 0.17603114 0.78805983 5.1626021e-39
0.10302453 0.1760678 0.78822392 4.3313981e-39
0.1068465 0.17710035 0.79284644 3.8736556e-39
0.11127622 0.17905042 0.80157655 4.7966951e-39
0.11471162 0.17933522 0.80285162 4.1495376e-39
0.1186115 0.1803104 0.80721724 4.2402787e-39
0.12138287 0.17956373 0.80387455 4.6083494e-39
0.12512369 0.18025273 0.80695915 3.8715074e-39
0.12827571 0.18007998 0.80618578 3.9644289e-39
0.13208209 0.18081163 0.80946124 4.886388e-39
0.13575922 0.18133511 0.81180471 4.148453e-39
0.13929293 0.18164675 0.81319988 4.0562532e-39
0.14262396 0.18168578 0.81337458 4.1484488e-39
0.14611344 0.1819203 0.81442457 4.979643e-39
0.14903402 0.18145184 0.81232733 4.4250329e-39
0.15205353 0.18112147 0.8108483 4.7009065e-39
0.15501234 0.18073434 0.80911517 4.5175831e-39
0.15787435 0.18025273 0.80695915 5.8990756e-39
0.16082372 0.17988843 0.80532825 4.6083424e-39
0.16489902 0.18077298 0.80928814 4.2402843e-39
0.16728942 0.17981192 0.8049857 3.9633359e-39
0.17066535 0.17992671 0.80549961 4.8849321e-39
0.1738975 0.17988843 0.80532825 4.5157936e-39
0.17703412 0.17975459 0.80472904 3.9626212e-39
0.18064576 0.18009916 0.80627167 3.9637016e-39
0.18383972 0.18002248 0.80592835 5.4388247e-39
0.18651496 0.17944941 0.80336279 5.7157675e-39
0.19015881 0.17981192 0.8049857 3.6871161e-39
0.19317938 0.17958279 0.80395997 3.5038095e-39
0.19602595 0.1792022 0.80225611 5.3459186e-39
0.19907099 0.17901251 0.80140686 3.8715046e-39
0.20418228 0.1806571 0.80876946 3.8722249e-39
0.20766434 0.18083097 0.80954778 3.4105236e-39
0.21115312 0.18100515 0.81032759 4.3321198e-39
0.21580464 0.18215545 0.81547725 4.5175887e-39
0.22013386 0.18300305 0.8192718 4.4257532e-39
0.22469898 0.18401863 0.82381839 3.5967184e-39
0.22739911 0.18349947 0.82149422 4.0569721e-39
0.23181477 0.18435965 0.8253451 3.7796663e-39
0.23744233 0.18614542 0.83333963 3.2272142e-39
0.24103671 0.18630949 0.83407414 3.4112453e-39
0.24498861 0.18674152 0.83600825 3.4112495e-39
0.24799818 0.18645327 0.83471781 5.2533544e-39
0.25169116 0.18667968 0.83573139 4.6079822e-39
0.25073749 0.18349947 0.82149422 3.6885511e-39
0.25059113 0.18098578 0.81024086 4.8867327e-39
0.25360811 0.1807923 0.80937469 4.3321198e-39
0.25700286 0.18086964 0.80972093 3.5959967e-39
0.26137939 0.18162723 0.81311256 3.8718633e-39
0.26394239 0.18112147 0.8108483 3.96298e-39
0.26706162 0.18100515 0.81032759 4.0566133e-39
0.27192199 0.1820574 0.81503832 3.8715018e-39
0.27716935 0.18334033 0.82078177 3.5030766e-39
0.27642485 0.1806764 0.80885583 3.5037927e-39
0.28021657 0.18100515 0.81032759 3.4108824e-39
0.28262803 0.18044508 0.8078202 3.5949191e-39
0.285541 0.18021432 0.80678719 3.5956366e-39
0.28698045 0.17906937 0.80166143 3.8715032e-39
0.29174775 0.18000332 0.80584258 3.1339354e-39
0.29111403 0.17762117 0.79517812 3.5034367e-39
0.29167604 0.17601281 0.78797781 3.9640548e-39
0.29410878 0.17555602 0.78593284 3.962973e-39
0.29819623 0.17608613 0.788306 3.5023563e-39
0.30193004 0.17639837 0.78970385 3.2272086e-39
0.30545369 0.17658256 0.79052842 3.1353745e-39
0.30795464 0.17617784 0.78871661 3.1350158e-39
0.31203336 0.1766748 0.79094136 3.0428215e-39
0.31471735 0.17637998 0.78962147 3.0435432e-39
0.31852001 0.17671172 0.79110664 3.5027193e-39
0.32122725 0.17643517 0.78986865 3.2268484e-39
0.32997966 0.17769583 0.79551232 2.8587904e-39
0.3360686 0.1792212 0.8023411 3.0431817e-39
0.34142354 0.18032962 0.80730337 3.1346528e-39
0.34617653 0.18110208 0.81076151 3.1350101e-39
0.3490932 0.18090834 0.8098942 2.7669507e-39
0.35207886 0.18075365 0.80920166 3.3201245e-39
0.35460499 0.18036808 0.80747557 3.3186853e-39
0.35621053 0.1795256 0.8037039 3.1342969e-39
0.36081296 0.18019512 0.80670118 2.9506245e-39
0.36443648 0.18036808 0.80747557 2.6733187e-39
-0.4810515 0.17996006 0.79127204 3.044611e-39
-0.47709215 0.17967837 0.79003346 3.1368094e-39
-0.47132823 0.17870864 0.78576964 3.2279288e-39
-0.46794489 0.17863449 0.7854436 3.319407e-39
-0.46302781 0.1779698 0.78252101 2.8595037e-39
-0.46161729 0.17865302 0.78552508 2.5836342e-39
-0.45738518 0.17824616 0.78373611 2.7673066e-39
-0.45010403 0.17663704 0.77666092 2.7669465e-39
-0.44731906 0.17678212 0.77729887 2.6740334e-39
-0.44185078 0.17586128 0.77324998 3.1353703e-39
-0.43639481 0.17493221 0.76916498 3.2279246e-39
-0.43535194 0.17577152 0.77285534 2.8598638e-39
-0.43412086 0.17654648 0.77626276 2.9516993e-39
-0.43274522 0.17727353 0.7794596 3.5959911e-39
-0.42962599 0.17729178 0.77953982 3.7800236e-39
-0.42831448 0.17806183 0.78292561 3.7810956e-39
-0.42518091 0.17808025 0.78300661 3.8736514e-39
-0.4221777 0.17815395 0.78333068 3.8732941e-39
-0.41951942 0.17837541 0.78430444 3.5959897e-39
-0.36106372 0.1778044 0.78179377 3.8736486e-39
-0.35242513 0.17665516 0.77674061 4.7938098e-39
-0.3478691 0.17754772 0.78066516 3.7793034e-39
-0.34512779 0.17776769 0.7816323 4.7019785e-39
-0.34308901 0.17835693 0.7842232 3.8736598e-39
-0.33665368 0.17831999 0.78406078 4.7948902e-39
-0.33319551 0.17817238 0.78341168 5.0711156e-39
-0.32991359 0.17811708 0.78316861 6.7288334e-39
-0.24885479 0.176982 0.77817768 4.4246728e-39
-0.24993533 0.18003532 0.79160297 5.3455515e-39
-0.2460537 0.17954722 0.78945678 5.7157871e-39
-0.24376473 0.18022376 0.79243153 5.0700492e-39
-0.24052346 0.1802049 0.79234856 5.3469906e-39
-0.23813011 0.18082944 0.79509461 6.0845598e-39
-0.23323756 0.17954722 0.78945678 5.898714e-39
-0.23065889 0.18003532 0.79160297 5.3469808e-39
-0.22073008 0.17471921 0.76822841 3.5970687e-39
-0.21809909 0.17511012 0.76994717 4.1488047e-39
-0.21583027 0.17580742 0.77301317 6.2710979e-39
-0.21133357 0.17468376 0.76807249 5.5320951e-39
-0.20974843 0.17596912 0.77372414 4.8870985e-39
-0.20631306 0.17571771 0.77261871 5.0707695e-39
-0.20202284 0.17471921 0.76822841 6.4529836e-39
-0.19872348 0.1745598 0.76752746 7.1901815e-39
-0.19622514 0.17511012 0.76994717 7.1930626e-39
-0.19622514 0.17511012 0.76994717 6.6381078e-39
-0.19622514 0.17511012 0.76994717 6.6413378e-39
-0.19622514 0.17511012 0.76994717 6.2704029e-39
-0.19622514 0.17511012 0.76994717 6.1764178e-39
-0.19622514 0.17511012 0.76994717 8.6674948e-39
-0.19622514 0.17511012 0.76994717 1.0512136e-38
-0.19622514 0.17511012 0.76994717 1.1438062e-38
-0.19622514 0.17511012 0.76994717 2.1762853e-38
-0.19622514 0.17511012 0.76994717 1.7801353e-38
-0.19622514 0.17511012 0.76994717 8.3009306e-39
-0.19622514 0.17511012 0.76994717 2.398199e-39
-0.19622514 0.17511012 0.76994717 1.4012985e-45
-0.19622514 0.17511012 0.76994717 2.7550649e-40
-0.19622514 0.17511012 0.76994717 1.1337516e-38
-0.19622514 0.17511012 0.76994717 1.2912478e-38
-0.19622514 0.17511012 0.76994717 7.841704e-39
-0.19622514 0.17511012 0.76994717 7.4703922e-39
-0.19622514 0.17511012 0.76994717 6.8253745e-39
-0.19622514 0.17511012 0.76994717 7.4678698e-39
-0.19622514 0.17511012 0.76994717 8.8533126e-39
-0.13519549 0.18126728 0.79701978 7.4710942e-39
-0.13180813 0.1810576 0.79609787 6.5494995e-39
-0.12852308 0.18098149 0.79576319 6.2703916e-39
-0.12512249 0.18073453 0.79467732 6.3629488e-39
-0.12230809 0.18134363 0.79735553 6.8232039e-39
-0.11694132 0.17809866 0.78308761 6.5451751e-39
-0.1144974 0.17924815 0.78814185 8.2054125e-39
-0.11150765 0.17958467 0.78962147 8.57636e-39
-0.10761827 0.17844936 0.78462958 7.100518e-39
-0.10473777 0.1789687 0.7869131 8.4827364e-39
-0.10177679 0.17937888 0.78871661 8.1132266e-39
-0.098812521 0.17980972 0.79061097 8.6660305e-39
-0.095833987 0.18024263 0.7925145 7.3774525e-39
-0.094145074 0.18321535 0.80558532 7.1923493e-39
-0.091059685 0.18358651 0.80721724 6.6388168e-39
-0.086848326 0.18163057 0.79861718 5.532828e-39
-0.083151013 0.18063973 0.79426044 5.9012546e-39
-0.079626754 0.17996006 0.79127204 6.2711175e-39
-0.076399386 0.17992245 0.79110664 6.8232095e-39
-0.073074125 0.17964087 0.78986865 8.0177856e-39
-0.069868423 0.17964087 0.78986865 1.8344419e-38
-0.066544697 0.17932284 0.78847021 2.0004273e-38
-0.063331477 0.17928548 0.788306 2.0743651e-38
-0.060132116 0.17928548 0.788306 2.3141822e-38
-0.056767255 0.17876431 0.78601438 2.1576657e-38
-0.053538285 0.17863449 0.7854436 2.1297179e-38
-0.050360993 0.17867155 0.78560662 2.2677605e-38
-0.047260862 0.17900591 0.78707671 2.2955989e-38
-0.044084821 0.17908038 0.78740412 2.0655065e-38
-0.04081272 0.17874575 0.78593284 1.4114221e-38
-0.037709109 0.1791549 0.78773183 2.0928409e-38
-0.034497723 0.17908038 0.78740412 2.3140737e-38
-0.031337876 0.17928548 0.788306 2.2125886e-38
-0.028141445 0.17930415 0.78838807 2.1391554e-38
-0.02498077 0.17958467 0.78962147 1.7699729e-38
-0.021835282 0.18007298 0.79176855 1.981987e-38
-0.018614084 0.17999768 0.79143745 2.2397776e-38
-0.015439135 0.1804315 0.79334491 2.1940762e-38
-0.012248846 0.18086742 0.79526162 2.2219499e-38
-0.0090212552 0.18086742 0.79526162 1.9636585e-38
-0.0058365818 0.18220718 0.80115247 1.5677958e-38
-0.0025739165 0.18142006 0.79769158 1.7613694e-38
0.00066248834 0.18113379 0.79643285 1.4568705e-38
0.0039125299 0.18195687 0.80005187 1.5398849e-38
0.0071724462 0.18228434 0.80149174 1.9272126e-38
0.01036388 0.18121004 0.79676813 2.1110999e-38
0.01370431 0.18263236 0.80302191 1.7335664e-38
0.016911376 0.18207231 0.80055946 1.2912797e-38
0.020154076 0.18201457 0.8003056 1.3742565e-38
0.023441784 0.18232293 0.80166143 1.466232e-38
0.026834577 0.18327385 0.80584258 1.1895752e-38
0.029948911 0.18232293 0.80166143 1.6692787e-38
0.033003282 0.18122911 0.79685199 1.586197e-38
0.036180206 0.18094344 0.79559594 1.2820964e-38
0.039035857 0.1792295 0.78805983 1.3374477e-38
0.042089641 0.17861596 0.78536212 1.1526987e-38
0.045352329 0.17891291 0.78666776 1.2447144e-38
0.048509754 0.17878287 0.78609604 9.2242573e-39
0.051678684 0.17870864 0.78576964 6.1789037e-39
0.054827917 0.17857891 0.78519922 6.0834724e-39
0.057918556 0.17828307 0.78389841 5.5310105e-39
0.060998973 0.1779882 0.78260189 5.3480626e-39
0.063937254 0.1773283 0.7797004 5.4391778e-39
0.066963762 0.17696381 0.77809769 6.1745779e-39
0.069564037 0.17555647 0.77190977 5.6221285e-39
0.07272651 0.1756281 0.77222466 5.6224859e-39
0.076054543 0.17607708 0.77419889 5.7139725e-39
0.079611845 0.17700019 0.77825767 6.0827508e-39
0.082668446 0.17678212 0.77729887 6.1753051e-39
0.086248174 0.17765763 0.78114843 5.9923628e-39
0.089938149 0.17869011 0.7856881 4.6101458e-39
0.093011051 0.17846785 0.78471088 4.7920204e-39
0.095848113 0.17782277 0.78187448 4.792012e-39
0.099318825 0.17835693 0.7842232 5.3451941e-39
0.10242735 0.17822771 0.78365499 5.3459074e-39
0.10601385 0.17891291 0.78666776 5.0722058e-39
0.1097425 0.17979094 0.79052842 4.5201138e-39
0.11322279 0.18022376 0.79243153 4.4272091e-39
0.11687931 0.18090543 0.79542875 4.1488104e-39
0.11955489 0.18007298 0.79176855 3.3183322e-39
0.12253764 0.17973463 0.79028088 3.7796677e-39
0.12596855 0.18005414 0.79168576 3.8707843e-39
0.12865692 0.17932284 0.78847021 3.5952834e-39
0.1355267 0.18431363 0.81041431 3.5952806e-39
0.13893478 0.18447159 0.81110895 4.2420808e-39
0.14250149 0.18482801 0.81267613 4.609427e-39
0.14601919 0.18510619 0.81389922 4.5183117e-39
0.14882644 0.18449135 0.81119585 4.7019813e-39
0.15159892 0.18386096 0.808424 4.1484488e-39
0.15430324 0.18317637 0.8054139 3.872585e-39
0.15712073 0.18265173 0.80310714 4.2406402e-39
0.15995596 0.18216862 0.80098295 4.1480831e-39
0.16419695 0.18327385 0.80584258 3.687828e-39
0.16651043 0.18222646 0.80123723 4.0558931e-39
0.17010432 0.18259361 0.80285162 3.7803866e-39
0.17317906 0.1824002 0.80200112 3.687835e-39
0.17635928 0.18232293 0.80166143 3.9644247e-39
0.18003224 0.18274866 0.80353332 4.4250427e-39
0.18307965 0.18253554 0.80259627 4.5168684e-39
0.18529591 0.18151569 0.79811203 4.0566161e-39
0.1888935 0.18186077 0.79962933 4.7030813e-39
0.19185513 0.18159226 0.79844874 4.2421004e-39
0.19460309 0.18113379 0.79643285 4.2402913e-39
0.19725442 0.18060184 0.79409385 4.609071e-39
0.20178951 0.18178397 0.79929167 3.7789432e-39
0.20449373 0.18130545 0.79718763 3.9629786e-39
0.20709674 0.1807535 0.79476076 3.779309e-39
0.20861414 0.17928548 0.788306 3.4108796e-39
0.21172532 0.17921084 0.78797781 3.2275687e-39
0.22447625 0.18443207 0.8109352 5.1644028e-39
0.22715916 0.18393952 0.80876946 3.5967114e-39
0.23088554 0.1842939 0.81032759 3.8722221e-39
0.23465146 0.18466944 0.81197888 3.4116026e-39
0.23624927 0.18335192 0.80618578 3.5970743e-39
0.24134587 0.18474869 0.81232733 3.9647806e-39
0.24874024 0.18534529 0.81495059 4.1495236e-39
0.25172257 0.18510619 0.81389922 3.7793006e-39
0.25453326 0.18474869 0.81232733 3.4105194e-39
0.25763664 0.18461004 0.81171769 3.5967184e-39
0.26112697 0.18474869 0.81232733 3.5030864e-39
0.2638576 0.18435308 0.81058788 3.779309e-39
0.2672905 0.18445183 0.81102204 4.3328331e-39
0.27090126 0.18466944 0.81197888 4.1480831e-39
0.27525949 0.18538521 0.81512606 3.1350172e-39
0.26951423 0.1793602 0.78863448 3.5037983e-39
0.27964786 0.18391988 0.80868304 2.8577086e-39
0.28091949 0.18261299 0.80293679 3.3186881e-39
0.28444976 0.18278745 0.8037039 2.9506273e-39
0.28451011 0.1807535 0.79476076 3.1350158e-39
0.28695247 0.18026149 0.79259747 2.8587862e-39
0.28853807 0.17924815 0.78814185 3.0417383e-39
0.29131219 0.17898729 0.78699487 3.6867448e-39
0.29380378 0.17856039 0.78511781 3.4101579e-39
0.29782411 0.17906176 0.78732222 3.3186839e-39
0.30142698 0.17930415 0.78838807 3.3194098e-39
0.30459496 0.17928548 0.788306 3.3186952e-39
0.30766618 0.17921084 0.78797781 3.1339382e-39
0.31063789 0.17908038 0.78740412 3.133934e-39
0.31357267 0.1789315 0.78674954 2.7665948e-39
0.31686452 0.17898729 0.78699487 2.6733229e-39
0.31936139 0.17859744 0.78528064 3.3186895e-39
0.32328618 0.17900591 0.78707671 3.5959953e-39
0.32736543 0.17949107 0.7892099 3.4116012e-39
0.33212644 0.18033701 0.79292947 2.674039e-39
0.33562577 0.18048824 0.79359442 3.1350144e-39
0.34127918 0.18178397 0.79929167 2.9506217e-39
0.34350771 0.18124819 0.79693586 2.5829196e-39
0.34725383 0.18151569 0.79811203 3.4123229e-39
0.35127062 0.18191841 0.79988283 3.779302e-39
0.35180363 0.18052609 0.79376084 3.1339311e-39
0.35749891 0.18178397 0.79929167 2.9499014e-39
0.36258027 0.18270987 0.80336279 2.7662304e-39
-0.47969785 0.18265602 0.78904539 3.411953e-39
-0.47575173 0.18237092 0.78781384 3.3201189e-39
-0.47005978 0.18140818 0.78365499 3.0431761e-39
-0.46687928 0.18140818 0.78365499 3.1353731e-39
-0.46150142 0.18054852 0.77994138 3.5048731e-39
-0.46004215 0.18122061 0.78284466 3.413755e-39
-0.45587504 0.18082795 0.78114843 3.1368094e-39
-0.44909051 0.17938429 0.77491206 3.2286449e-39
-0.4459455 0.17938429 0.77491206 2.8598638e-39
-0.44139993 0.1788169 0.77246106 3.3201203e-39
-0.43586344 0.17783709 0.76822841 3.5977862e-39
-0.43442065 0.17852546 0.77120209 3.1368094e-39
-0.43256855 0.17905441 0.77348703 3.1357304e-39
-0.43141273 0.17988139 0.7770595 3.5041528e-39
-0.42725042 0.17945775 0.77522945 3.411597e-39
-0.42606738 0.18028849 0.77881813 3.3197601e-39
-0.4223417 0.18004772 0.77777797 3.5048731e-39
-0.42130589 0.18095864 0.78171301 3.3197643e-39
-0.41826287 0.18101472 0.78195524 3.780381e-39
-0.35722733 0.17905441 0.77348703 4.703405e-39
-0.35445026 0.17923751 0.77427804 4.5190166e-39
-0.35023326 0.17868929 0.77190977 4.6097773e-39
-0.34724206 0.17876218 0.77222466 5.1629539e-39
-0.34484664 0.17914592 0.77388233 4.7938168e-39
-0.34244087 0.17953129 0.77554709 3.965131e-39
-0.34023434 0.18002923 0.7776981 3.2297281e-39
-0.33707803 0.18002923 0.7776981 3.8732997e-39
-0.33399034 0.18006621 0.7778579 4.9781997e-39
-0.33008727 0.17966013 0.77610362 5.4384534e-39
-0.32747453 0.17995529 0.77737868 5.2537034e-39
-0.2472032 0.17894471 0.77301317 5.5299399e-39
-0.25014457 0.18340148 0.79226565 6.6369993e-39
-0.2453884 0.18225712 0.78732222 5.9941565e-39
-0.2432301 0.18303755 0.79069358 5.3480654e-39
-0.23957069 0.18269409 0.7892099 5.8086862e-39
-0.2366637 0.18292291 0.79019839 5.8097666e-39
-0.22816977 0.17878042 0.77230346 5.5328168e-39
-0.22310089 0.17724358 0.76566452 4.7034135e-39
-0.22017156 0.17738709 0.76628447 4.5197439e-39
-0.2170396 0.17736915 0.76620692 5.808682e-39
-0.21397324 0.17740504 0.76636207 5.901958e-39
-0.21071364 0.17727943 0.76581943 5.7168549e-39
-0.20773162 0.17738709 0.76628447 5.7165004e-39
-0.20470451 0.17745894 0.76659483 5.7179353e-39
-0.20153204 0.17740504 0.76636207 5.7182871e-39
-0.19806087 0.1770824 0.76496828 6.3625733e-39
-0.19564812 0.17771086 0.76768309 6.1789107e-39
-0.19564812 0.17771086 0.76768309 7.0072392e-39
-0.19564812 0.17771086 0.76768309 6.4544228e-39
-0.19564812 0.17771086 0.76768309 7.0990733e-39
-0.19564812 0.17771086 0.76768309 7.837723e-39
-0.19564812 0.17771086 0.76768309 7.9320892e-39
-0.19564812 0.17771086 0.76768309 9.222842e-39
-0.19564812 0.17771086 0.76768309 1.2547281e-38
-0.19564812 0.17771086 0.76768309 2.2039799e-38
-0.19564812 0.17771086 0.76768309 1.743257e-38
-0.19564812 0.17771086 0.76768309 7.7481127e-39
-0.19564812 0.17771086 0.76768309 2.0297724e-39
-0.19564812 0.17771086 0.76768309 0
-0.19564812 0.17771086 0.76768309 3.6734198e-40
-0.19564812 0.17771086 0.76768309 1.2350948e-38
-0.19564812 0.17771086 0.76768309 1.2727369e-38
-0.19564812 0.17771086 0.76768309 6.9201121e-39
-0.19564812 0.17771086 0.76768309 6.4555186e-39
-0.19564812 0.17771086 0.76768309 6.9175729e-39
-0.19564812 0.17771086 0.76768309 6.9164995e-39
-0.19564812 0.17771086 0.76768309 5.6246761e-39
-0.13475572 0.18390183 0.79442716 7.1916347e-39
-0.13150391 0.18386325 0.79426044 6.3633131e-39
-0.12828039 0.18386325 0.79426044 6.2714734e-39
-0.12484729 0.18355514 0.79292947 6.731374e-39
-0.12159096 0.18349749 0.79268044 5.9927314e-39
-0.11805248 0.18299931 0.79052842 6.0860032e-39
-0.1148561 0.18301843 0.79061097 6.7302908e-39
-0.11177578 0.18322891 0.79152018 7.4696495e-39
-0.10776346 0.18187883 0.7856881 8.022117e-39
-0.10477044 0.18221922 0.78715855 7.3760231e-39
-0.10173439 0.18250385 0.78838807 7.7447944e-39
-0.098575763 0.1825799 0.78871661 7.0068763e-39
-0.095216021 0.18227609 0.78740412 7.2838289e-39
-0.092366159 0.18296111 0.79036337 8.1139469e-39
-0.089466661 0.1835936 0.79309565 5.9938062e-39
-0.085843198 0.18273219 0.78937447 6.4537081e-39
-0.082510456 0.18244685 0.78814185 6.5469813e-39
-0.079114102 0.18199216 0.78617764 7.099439e-39
-0.076010205 0.18220028 0.78707671 7.3778168e-39
-0.072732657 0.18199216 0.78617764 6.8235682e-39
-0.069491424 0.18185997 0.78560662 1.2258469e-38
-0.066261761 0.18174681 0.78511781 1.5487401e-38
-0.063121162 0.18187883 0.7856881 1.7974891e-38
-0.059975993 0.18201105 0.78625929 2.2864876e-38
-0.056567576 0.18131435 0.78324962 2.0835495e-38
-0.053377692 0.18127684 0.78308761 1.9546167e-38
-0.05014246 0.18107082 0.78219759 2.027979e-38
