# .PCD v0.7 - Point Cloud Data file format
VERSION 0.7
FIELDS x y z rgb
SIZE 4 4 4 4
TYPE F F F F
COUNT 1 1 1 1
WIDTH 1016
HEIGHT 1
VIEWPOINT 0 0 0 1 0 0 0
POINTS 1016
DATA ascii
-0.16302212 -0.13969125 2.0291853 6.376348e-39
-0.15553699 -0.14036845 2.0390224 7.2997449e-39
-0.14805909 -0.14112863 2.0500653 7.9458443e-39
-0.13951218 -0.14089972 2.0467398 7.9462031e-39
-0.13081641 -0.14048195 2.0406713 7.8532858e-39
-0.11978978 -0.13733545 1.9949646 7.9451227e-39
-0.1131844 -0.13916904 2.0215998 7.5763402e-39
-0.10497969 -0.13916904 2.0215998 7.2993931e-39
-0.096568681 -0.13887239 2.0172904 7.5756185e-39
-0.088381454 -0.13887239 2.0172904 7.4841459e-39
-0.080215603 -0.1389094 2.017828 7.2075576e-39
-0.072218679 -0.13928062 2.0232203 7.2053828e-39
-0.06407588 -0.13942966 2.0253854 2.6819956e-39
-0.055855799 -0.13942966 2.0253854 2.0344528e-39
-0.047737889 -0.1397287 2.0297294 2.0337311e-39
-0.039457865 -0.13957901 2.0275552 1.8496986e-39
-0.031220619 -0.13954164 2.0270123 1.8496972e-39
-0.023006257 -0.13961641 2.0280983 1.9415327e-39
-0.014719962 -0.13909476 2.0205207 1.8496972e-39
-0.0066024438 -0.14086163 2.0461867 1.8496972e-39
0.0017113083 -0.14162719 2.0573072 1.8493384e-39
0.010074631 -0.14181988 2.0601063 1.849337e-39
0.019729448 -0.15177287 2.2046857 1.8496972e-39
0.029144002 -0.15424329 2.2405715 1.9415355e-39
0.039475784 -0.15923864 2.3131349 1.9418928e-39
0.04928533 -0.16061266 2.3330941 1.9418942e-39
0.058609761 -0.16021766 2.3273566 1.9418942e-39
0.067147166 -0.15807949 2.2962968 1.9418928e-39
0.075572804 -0.15623143 2.2694516 1.8497e-39
0.083605535 -0.15406092 2.2379222 1.9415369e-39
0.091605075 -0.1522606 2.2117705 1.9418956e-39
0.099506021 -0.15063238 2.1881187 1.9418956e-39
0.10767083 -0.14963768 2.1736696 1.8504174e-39
0.11559662 -0.14848663 2.156949 1.8500587e-39
0.12141051 -0.14497581 2.1059501 2.0340912e-39
0.12726708 -0.1419744 2.062351 2.2181223e-39
0.13486569 -0.14116687 2.0506206 2.4028723e-39
0.14264727 -0.14063358 2.0428739 4.4326083e-39
0.14952618 -0.13931784 2.0237613 8.4906496e-39
0.15578249 -0.13758925 1.9986513 9.8743001e-39
0.16281949 -0.13668714 1.9855471 1.0520384e-38
0.16906004 -0.13523301 1.9644241 1.0243799e-38
0.1758011 -0.1342922 1.9507577 8.9523438e-39
0.18258917 -0.13346685 1.9387684 6.6467398e-39
0.19021416 -0.13329618 1.9362892 4.524804e-39
0.19950129 -0.13425761 1.9502553 3.5095772e-39
0.21028745 -0.13611597 1.9772501 2.9560461e-39
0.21678354 -0.13516288 1.9634053 2.5869049e-39
0.22411275 -0.1347784 1.9578202 2.2184825e-39
0.23981044 -0.13928062 2.0232203 2.1262897e-39
0.25178984 -0.14139666 2.0539584 2.126647e-39
0.26040846 -0.14155026 2.0561898 2.1270071e-39
0.26926547 -0.14181988 2.0601063 2.3110382e-39
0.27785328 -0.14193575 2.0617895 2.5872664e-39
0.2858319 -0.14174274 2.0589857 2.6798194e-39
0.29251772 -0.14093782 2.0472934 3.6024945e-39
0.29880667 -0.13999142 2.0335457 5.3552863e-39
0.30493036 -0.13902055 2.0194428 7.2006324e-39
0.31212723 -0.13857698 2.0129993 8.307696e-39
0.31776237 -0.13748036 1.9970696 8.9523424e-39
0.32187697 -0.13579679 1.9726136 8.9523396e-39
0.32723972 -0.13470872 1.9568082 9.229288e-39
0.33345774 -0.13401596 1.9467449 9.044538e-39
0.33926496 -0.13319398 1.9348047 8.9527011e-39
0.34544009 -0.13255037 1.9254555 8.9527025e-39
0.35120028 -0.13177954 1.9142581 8.952348e-39
0.35608822 -0.13072187 1.8988941 9.1367336e-39
0.36080858 -0.12964877 1.8833061 9.2285663e-39
0.36608431 -0.12881564 1.8712039 8.8597852e-39
0.37202355 -0.12824509 1.862916 8.6753982e-39
0.38604364 -0.13042744 1.8946173 8.4913684e-39
0.4008553 -0.13278677 1.9288894 8.5835627e-39
0.41278532 -0.13411942 1.9482478 8.4913656e-39
0.45709074 -0.1404441 2.0401216 8.2151403e-39
0.44602025 -0.13460435 1.955292 8.3069786e-39
0.46085921 -0.13665129 1.9850265 8.6746793e-39
0.54141974 -0.15511549 2.2532413 8.4920831e-39
0.59911668 -0.14899601 2.1643484 8.0296602e-39
0.59331387 -0.14542077 2.1124136 7.4764934e-39
0.60188717 -0.14542077 2.1124136 7.6608875e-39
0.60690433 -0.14457366 2.1001084 7.7530789e-39
0.64607364 -0.15177287 2.2046857 7.569045e-39
0.65217268 -0.15111279 2.1950974 7.5686891e-39
0.6439057 -0.14718668 2.1380658 7.4772123e-39
0.67057365 -0.15124436 2.1970084 7.4761319e-39
0.63233149 -0.14074752 2.044529 7.8441984e-39
0.63701665 -0.13995382 2.0329998 7.6598057e-39
0.65529776 -0.14212927 2.0646007 7.1077095e-39
0.66259283 -0.1418971 2.061228 7.4764948e-39
0.67518634 -0.14279124 2.0742166 7.5679716e-39
0.68043542 -0.14212927 2.0646007 7.2924595e-39
0.69259208 -0.14290871 2.075923 7.2931756e-39
0.69852734 -0.14240111 2.0685494 7.6612364e-39
0.70711583 -0.14244002 2.0691147 7.291735e-39
0.714342 -0.14220683 2.0657275 6.8314828e-39
0.71782929 -0.14124337 2.0517318 7.2917448e-39
0.7438969 -0.14469407 2.1018574 7.1073508e-39
0.72680163 -0.13976617 2.0302737 7.6605218e-39
0.72149777 -0.13719085 1.9928641 7.1077095e-39
0.72901016 -0.13708261 1.9912916 7.0151551e-39
0.73845148 -0.13733545 1.9949646 7.3835761e-39
0.73895407 -0.13593847 1.9746716 7.1077081e-39
0.73982865 -0.13463913 1.9557972 6.8311184e-39
0.75616598 -0.13615152 1.9777666 6.8311184e-39
0.7657932 -0.13643667 1.9819086 7.0165901e-39
0.78037399 -0.13758925 1.9986513 6.9229595e-39
0.79626322 -0.13894643 2.0183659 7.1069892e-39
0.80833375 -0.13961641 2.0280983 7.1066291e-39
0.83399087 -0.14259592 2.0713792 6.8307639e-39
0.85874116 -0.14251792 2.0702462 6.9229595e-39
0.87455684 -0.14373636 2.0879457 7.0147936e-39
0.87315786 -0.14212927 2.0646007 6.7389298e-39
0.88274074 -0.14232333 2.0674198 6.8314856e-39
0.88605028 -0.14151183 2.0556314 7.0155153e-39
0.88217723 -0.13957901 2.0275552 6.7385669e-39
0.88495517 -0.13872454 2.0151427 6.6463698e-39
0.88117206 -0.13686661 1.9881541 6.6463712e-39
0.89346433 -0.13751663 1.9975965 6.737848e-39
0.90949064 -0.13872454 2.0151427 6.7385683e-39
0.91571927 -0.13842976 2.0108607 6.7385683e-39
0.9308027 -0.13946697 2.0259273 6.7382095e-39
0.94280934 -0.14002903 2.0340922 6.5541742e-39
1.0056429 -0.14806479 2.1508212 6.5552518e-39
0.97317791 -0.1420518 2.0634754 6.7385669e-39
0.96887714 -0.14021739 2.0368283 6.5538155e-39
0.97609323 -0.14006667 2.0346386 6.9218777e-39
1.0101405 -0.14373636 2.0879457 6.922235e-39
1.0768211 -0.15194987 2.2072568 6.7378494e-39
1.0982668 -0.15369745 2.2326424 6.4612653e-39
1.0934623 -0.15177287 2.2046857 6.4612625e-39
1.1772122 -0.15948227 2.316674 6.1850315e-39
1.2058011 -0.16206096 2.3541327 6.1853903e-39
1.1967492 -0.15957993 2.3180928 6.1846728e-39
1.2132151 -0.16051373 2.3316572 6.2765097e-39
1.2279729 -0.16120881 2.341754 6.0924772e-39
1.2417017 -0.16175917 2.3497488 6.0924786e-39
1.2477529 -0.16130859 2.3432035 6.5530966e-39
1.2476094 -0.16007005 2.3252122 6.5534567e-39
1.2547342 -0.15977561 2.3209352 6.3694242e-39
1.2575997 -0.15894726 2.3089023 6.4612597e-39
1.2554839 -0.15750621 2.2879694 6.2765097e-39
-1.1928051 -0.1246091 1.9234986 9.6801782e-39
-1.1778167 -0.12385389 1.9118412 9.8642107e-39
-1.1844139 -0.12537357 1.9352993 9.8645667e-39
-1.1759583 -0.1253095 1.9343103 9.8645681e-39
-1.1974788 -0.12846029 1.9829468 9.5883399e-39
-1.1903663 -0.1285613 1.9845061 9.7716522e-39
-1.1935753 -0.12978603 2.0034111 1.060141e-38
-1.1914346 -0.13044186 2.0135348 1.0970916e-38
-1.1899084 -0.13117449 2.0248437 1.1432974e-38
-1.176029 -0.13054602 2.0151427 1.097199e-38
-1.1638234 -0.13009587 2.0081937 1.0418458e-38
-1.1621466 -0.1308246 2.0194428 9.8642051e-39
-1.1564183 -0.13110435 2.0237613 1.0049312e-38
-1.1540662 -0.13177362 2.0340922 1.0602129e-38
-1.1557473 -0.13291636 2.0517318 1.1338615e-38
-1.1521037 -0.13345888 2.0601063 1.1614484e-38
-1.1344815 -0.13237825 2.0434253 1.1707035e-38
-1.1289306 -0.13270059 2.0484011 1.1798507e-38
-1.0375253 -0.12286107 1.8965157 1.1522282e-38
-1.0363182 -0.12363534 1.9084675 1.1707395e-38
-1.1060851 -0.13295239 2.0522881 1.1248214e-38
-1.0983512 -0.13302451 2.0534012 1.1063467e-38
-1.012316 -0.12354191 1.9070253 1.0508858e-38
-1.0048293 -0.12357304 1.9075059 1.0785804e-38
-0.99533224 -0.12335549 1.9041476 1.0786166e-38
-0.99486047 -0.12426182 1.918138 1.0971272e-38
-0.99999684 -0.12588845 1.9432471 1.1432607e-38
-0.97361737 -0.12354191 1.9070253 1.0509575e-38
-0.99288821 -0.12699674 1.9603549 1.0601054e-38
-0.9753353 -0.12575933 1.941254 1.1247861e-38
-0.95039827 -0.12354191 1.9070253 1.0973074e-38
-0.92906827 -0.12276881 1.8950915 1.1799957e-38
-0.90940899 -0.12323151 1.9022338 1.134006e-38
-0.90509993 -0.12369771 1.9094303 1.1431899e-38
-0.90603375 -0.12489468 1.927907 1.1986149e-38
-0.90027255 -0.12518157 1.9323356 1.1986507e-38
-0.88096273 -0.12357304 1.9075059 1.2446767e-38
-0.88481349 -0.12521353 1.9328289 1.3366922e-38
-0.88079178 -0.12575933 1.941254 1.3091407e-38
-0.86845946 -0.1251177 1.9313496 1.2169101e-38
-0.8697176 -0.12644017 1.9517635 1.1985429e-38
-0.85913849 -0.12605022 1.9457443 1.2815187e-38
-0.84645569 -0.12534153 1.9348047 1.2724429e-38
-0.83433884 -0.12470414 1.9249659 1.1802837e-38
-0.82109821 -0.12388517 1.9123241 1.2079432e-38
-0.81026703 -0.12341756 1.9051058 1.290811e-38
-0.80273712 -0.12344863 1.9055854 1.2448199e-38
-0.80534112 -0.1250539 1.9303648 1.1896113e-38
-0.80386055 -0.12605022 1.9457443 1.2816985e-38
-0.78886771 -0.12492649 1.928398 1.2999575e-38
-0.79853332 -0.12772432 1.9715861 1.2997413e-38
-0.77618033 -0.12540562 1.9357941 1.4194516e-38
-0.7720747 -0.12601782 1.9452443 1.3827533e-38
-0.76733434 -0.12653802 1.9532743 1.4197758e-38
-0.76117438 -0.12683253 1.9578202 1.2815546e-38
-0.75225586 -0.12666875 1.955292 1.2998499e-38
-0.73314881 -0.12476759 1.9259453 1.4289595e-38
-0.71820688 -0.12354191 1.9070253 1.3828616e-38
-0.70726049 -0.12298431 1.8984179 1.4383943e-38
-0.69815516 -0.12273809 1.8946173 1.4658015e-38
-0.69081157 -0.12279955 1.895566 1.5025709e-38
-0.68363184 -0.12289186 1.8969909 1.5761479e-38
-0.66286016 -0.12332447 1.9036688 1.4196314e-38
-0.65267241 -0.12286107 1.8965157 1.4659094e-38
-0.64192009 -0.12227909 1.887532 1.2725144e-38
-0.6403259 -0.12344863 1.9055854 1.4384302e-38
-0.64344293 -0.12556615 1.9382721 1.4477222e-38
-0.66915405 -0.13219984 2.0406713 1.3554548e-38
-0.65121776 -0.13026863 2.0108607 1.3738215e-38
-0.63713372 -0.12906879 1.9923397 1.4014079e-38
-0.60731238 -0.1246091 1.9234986 1.4105924e-38
-0.58991373 -0.12261535 1.8927227 1.4380713e-38
-0.58005685 -0.12215726 1.8856515 1.4382866e-38
-0.57226133 -0.12212684 1.885182 1.4843488e-38
-0.56630242 -0.12249286 1.8908318 1.4014446e-38
-0.55862844 -0.12249286 1.8908318 1.4566181e-38
-0.55233389 -0.12279955 1.895566 1.410629e-38
-0.54655653 -0.12323151 1.9022338 1.4015168e-38
-0.54114771 -0.12376013 1.9103938 1.5029672e-38
-0.53528529 -0.12419888 1.9171666 1.5303021e-38
-0.52737087 -0.12416744 1.9166812 1.5393784e-38
-0.52463913 -0.12537357 1.9352993 1.4659457e-38
-0.52293372 -0.12686534 1.9583266 1.3829339e-38
-0.52091444 -0.12832585 1.9808714 1.281662e-38
-0.51788861 -0.12958029 2.0002353 9.2235203e-39
-0.51356977 -0.13054602 2.0151427 6.4580269e-39
-0.50606477 -0.13071999 2.017828 4.3371743e-39
-0.5001415 -0.13131496 2.0270123 2.862047e-39
-0.49469623 -0.13205746 2.0384736 2.4932631e-39
-0.48918903 -0.13280839 2.0500653 2.4932659e-39
-0.48178199 -0.1330606 2.0539584 2.4007129e-39
-0.47229278 -0.1327365 2.0489554 2.5854699e-39
-0.46322483 -0.13252132 2.0456338 2.3092362e-39
-0.45541477 -0.1326647 2.047847 2.2174007e-39
-0.43693942 -0.12964879 2.0012929 2.3092376e-39
-0.41256744 -0.12473586 1.9254555 2.4017933e-39
-0.40485588 -0.12476759 1.9259453 2.4014346e-39
-0.39542991 -0.12426182 1.918138 2.5854657e-39
-0.38656777 -0.12391647 1.9128072 4.6123192e-39
-0.37976405 -0.12423035 1.9176521 9.5883497e-39
-0.37292582 -0.12454581 1.9225218 1.4198121e-38
-0.36577341 -0.12476759 1.9259453 1.5398462e-38
-0.35886982 -0.1250858 1.9308572 1.3923705e-38
-0.3522011 -0.12550189 1.9372802 1.3002105e-38
-0.34381074 -0.1253095 1.9343103 8.9469446e-39
-0.33768582 -0.12595311 1.9442452 4.336817e-39
-0.3384876 -0.12927291 1.9954904 2.5854643e-39
-0.33408722 -0.13071999 2.017828 2.4014332e-39
-0.32633269 -0.13089442 2.0205207 2.3099536e-39
-0.32199946 -0.13248552 2.0450811 2.3099536e-39
-0.31677994 -0.13378653 2.0651639 2.2177594e-39
-0.30966547 -0.13433619 2.0736485 2.4017919e-39
-0.30224293 -0.13477917 2.0804865 2.493633e-39
-0.2950967 -0.13537438 2.0896745 2.4017975e-39
-0.28925034 -0.13661878 2.1088831 2.3092376e-39
-0.28194797 -0.13723038 2.1183243 2.1244862e-39
-0.26361451 -0.13234253 2.0428739 1.8478965e-39
-0.2374476 -0.12307689 1.8998471 1.9397334e-39
-0.23054698 -0.1235108 1.9065452 1.7557051e-39
-0.22559291 -0.1250539 1.9303648 1.8475378e-39
-0.21926798 -0.12592077 1.943746 1.9397334e-39
-0.21335115 -0.12709546 1.9618789 1.9397334e-39
-0.20688996 -0.12802438 1.9762179 1.9400921e-39
-0.19747765 -0.12712841 1.9623874 1.7560652e-39
-0.18917002 -0.12689817 1.9588333 2.588365e-39
-0.18150181 -0.12709546 1.9618789 6.834794e-39
-0.17554097 -0.1285613 1.9845061 7.0220734e-39
-0.16819219 -0.12910277 1.9928641 6.9291645e-39
-0.16099405 -0.12982038 2.0039415 6.5618239e-39
-0.1537973 -0.13061555 2.0162158 7.4845019e-39
-0.14655112 -0.13145575 2.0291853 7.7614545e-39
-0.13787217 -0.1310343 2.0226798 7.7614573e-39
-0.12765095 -0.12900089 1.9912916 7.7614573e-39
-0.1175594 -0.12683253 1.9578202 7.208638e-39
-0.11181102 -0.1293752 1.9970696 7.1157193e-39
-0.1031075 -0.12862875 1.9855471 7.2071961e-39
-0.094676659 -0.12812471 1.9777666 7.0235223e-39
-0.086446598 -0.12782419 1.9731276 7.2079136e-39
-0.07843861 -0.12782419 1.9731276 7.2075548e-39
-0.070688538 -0.12829228 1.9803534 6.005039e-39
-0.062815532 -0.12862875 1.9855471 1.9429858e-39
-0.054814644 -0.12876382 1.9876322 2.125568e-39
-0.046735518 -0.12873003 1.9871105 1.9415341e-39
-0.038539279 -0.12829228 1.9803534 1.9415341e-39
-0.030486016 -0.12822521 1.9793179 1.849337e-39
-0.022015471 -0.1257271 1.9407564 1.7571428e-39
-0.014363463 -0.12772432 1.9715861 1.849337e-39
-0.0064746998 -0.12999243 2.006597 1.8496972e-39
0.0017029784 -0.13262883 2.0472934 1.9415341e-39
0.010030959 -0.13288036 2.0511761 1.8493384e-39
0.019717965 -0.14274196 2.2034025 1.8489783e-39
0.028972516 -0.1442958 2.2273877 1.8493398e-39
0.038823389 -0.14737421 2.2749071 1.8496986e-39
0.048332091 -0.14822043 2.2879694 1.9418956e-39
0.057792529 -0.14866972 2.2949047 1.8496986e-39
0.066681989 -0.14772934 2.2803888 1.9415341e-39
0.074019633 -0.14399923 2.22281 1.9415355e-39
0.081863247 -0.14195698 2.1912854 1.7571428e-39
0.090520836 -0.14158817 2.1855919 1.8496972e-39
0.098284565 -0.14001182 2.1612592 1.9415341e-39
0.10575789 -0.13831399 2.135051 1.9418942e-39
0.11302065 -0.13661878 2.1088831 2.0337311e-39
0.11870296 -0.1333863 2.0589857 1.9418956e-39
0.12548952 -0.13173822 2.0335457 2.0337325e-39
0.13320602 -0.13120958 2.0253854 2.2181237e-39
0.14104876 -0.13085949 2.0199816 3.6021344e-39
0.14743738 -0.12927291 1.9954904 7.2002737e-39
0.15275799 -0.12696387 1.9598475 9.966137e-39
0.1593508 -0.12588845 1.9432471 1.0704054e-38
0.1663834 -0.12524551 1.9333224 1.0151243e-38
0.173565 -0.12476759 1.9259453 8.0300301e-39
0.18060048 -0.12423035 1.9176521 5.1701748e-39
0.18828794 -0.12416744 1.9166812 2.8645666e-39
0.1969644 -0.12473586 1.9254555 2.1266456e-39
0.20624761 -0.12563048 1.939265 2.1266484e-39
0.21302684 -0.12499017 1.9293809 2.2181251e-39
0.22007212 -0.12454581 1.9225218 2.1259281e-39
0.23423927 -0.12802438 1.9762179 1.9415383e-39
0.24995887 -0.13209303 2.0390224 1.9422557e-39
0.25921166 -0.13259298 2.0467398 2.0344514e-39
0.26809824 -0.13288036 2.0511761 1.9415355e-39
0.27694821 -0.13313285 2.0550735 2.0337297e-39
0.28513399 -0.1330606 2.0539584 1.9415355e-39
0.29228061 -0.13252132 2.0456338 1.941897e-39
0.29848596 -0.13159683 2.0313632 2.4028723e-39
0.30460536 -0.13068517 2.0172904 3.509936e-39
0.31146473 -0.13013038 2.0087266 5.5400335e-39
0.31684303 -0.12900089 1.9912916 7.5686947e-39
0.31995955 -0.12702963 1.9608626 8.6764772e-39
0.32430598 -0.12563048 1.939265 8.9530612e-39
0.33048347 -0.12499017 1.9293809 8.8605069e-39
0.3367691 -0.12441943 1.920571 8.9527039e-39
0.34299758 -0.12385389 1.9118412 8.8601467e-39
0.34881896 -0.12316962 1.9012785 8.7679525e-39
0.35307729 -0.12197498 1.8828378 9.2289293e-39
0.35822436 -0.12113149 1.8698174 9.3211221e-39
0.36285573 -0.12015223 1.8547013 8.7683084e-39
0.36875701 -0.11962473 1.8465587 8.5835627e-39
0.38061446 -0.12101194 1.867972 8.4910083e-39
0.39167464 -0.12209644 1.8847127 8.7672322e-39
0.40232849 -0.12301515 1.8988941 8.5831997e-39
0.41055006 -0.12316962 1.9012785 8.3995301e-39
0.41462213 -0.12209644 1.8847127 8.3073345e-39
0.42406592 -0.12261535 1.8927227 8.1229446e-39
0.43413532 -0.12329347 1.9031903 8.3991714e-39
0.45092791 -0.12582386 1.94225 8.398091e-39
0.45961857 -0.12391647 1.9128072 8.4902824e-39
0.47999755 -0.12316962 1.9012785 8.2140557e-39
0.48808166 -0.12326248 1.902712 7.9385492e-39
0.4936946 -0.12273809 1.8946173 8.2144172e-39
0.51319933 -0.12563048 1.939265 7.8456333e-39
0.50831008 -0.12255407 1.8917768 7.7538006e-39
0.51534402 -0.12240115 1.8894162 7.7530817e-39
0.52028555 -0.12176301 1.8795657 7.661242e-39
0.53267455 -0.12286107 1.8965157 7.5690506e-39
0.59148985 -0.13448352 2.075923 7.6608847e-39
0.54506481 -0.1221877 1.8861213 7.4768508e-39
0.61355555 -0.13563645 2.0937197 7.4768508e-39
0.62447071 -0.13616364 2.1018574 7.3839405e-39
0.62881142 -0.13526239 2.0879457 7.1080724e-39
0.57958287 -0.12301515 1.8988941 7.3846565e-39
0.60977173 -0.12772432 1.9715861 7.6601672e-39
0.63548088 -0.13138533 2.0280983 7.4761333e-39
0.65068424 -0.13280839 2.0500653 7.1077123e-39
0.65989792 -0.13298845 2.0528445 7.1087885e-39
0.67095834 -0.13353156 2.061228 7.1077095e-39
0.67674446 -0.13302451 2.0534012 6.7403661e-39
0.68600851 -0.13320516 2.0561898 7.2921022e-39
0.69228542 -0.13280839 2.0500653 7.476492e-39
0.70022643 -0.1327365 2.0489554 7.1991849e-39
0.6554991 -0.12279955 1.895566 6.9240385e-39
0.7153092 -0.13244975 2.044529 7.0155167e-39
0.73071086 -0.13375004 2.0646007 7.0147992e-39
0.73032695 -0.13216421 2.0401216 7.2921022e-39
0.72036004 -0.12889919 1.9897217 7.1077081e-39
0.72481608 -0.12825873 1.9798355 7.1073466e-39
0.73400295 -0.12846029 1.9829468 7.0155125e-39
0.72981709 -0.12634245 1.9502553 6.9236784e-39
0.73170072 -0.1253095 1.9343103 6.8307597e-39
0.74430531 -0.12611504 1.9467449 6.8307583e-39
0.75181955 -0.12605022 1.9457443 6.8311212e-39
0.76800638 -0.12742567 1.966976 7.0144363e-39
0.78311044 -0.12859502 1.9850265 7.1066333e-39
0.80466932 -0.13078971 2.0189042 6.830408e-39
0.82140571 -0.13216421 2.0401216 6.830408e-39
0.76820439 -0.12237061 1.8889447 6.5548987e-39
0.76820403 -0.12116142 1.8702793 6.6467342e-39
0.78471178 -0.12255407 1.8917768 6.7392871e-39
0.85429502 -0.13212861 2.0395718 6.8314786e-39
0.86865705 -0.1330606 2.0539584 6.7385655e-39
0.87866175 -0.13331378 2.0578666 6.7385683e-39
0.87488556 -0.13149099 2.0297294 6.6467328e-39
0.87468129 -0.13023405 2.0103269 6.7385669e-39
0.8658272 -0.12772432 1.9715861 6.6463726e-39
0.86171114 -0.12595311 1.9442452 6.8304052e-39
0.8736403 -0.12653802 1.9532743 6.5545343e-39
0.88983238 -0.12772432 1.9715861 6.5541756e-39
0.90159076 -0.12825873 1.9798355 6.8296849e-39
0.91416812 -0.12889919 1.9897217 6.7378466e-39
0.92272848 -0.12896697 1.9907681 6.6456482e-39
0.94396347 -0.13078971 2.0189042 6.4623373e-39
0.94760871 -0.13016492 2.0092597 6.6463684e-39
0.95983911 -0.13071999 2.017828 6.6456496e-39
0.96289581 -0.13002688 2.007129 6.4612611e-39
0.98435092 -0.13180903 2.0346386 6.6452922e-39
0.96486318 -0.12812471 1.9777666 6.553098e-39
0.9678334 -0.12745878 1.9674872 6.2768698e-39
0.99337292 -0.1297517 2.0028811 6.2768684e-39
1.0089755 -0.13071999 2.017828 6.3694242e-39
1.0234387 -0.13152625 2.0302737 6.1853945e-39
1.1315601 -0.14311683 2.2091889 6.1839553e-39
1.1468847 -0.14391473 2.2215054 6.0928387e-39
1.1724136 -0.14597066 2.2532413 6.1853903e-39
1.2001319 -0.14826524 2.288661 5.8158917e-39
1.2283583 -0.15058686 2.3244982 5.9080859e-39
1.2439029 -0.15133026 2.3359737 6.1850301e-39
1.2388582 -0.14957651 2.3089023 6.276867e-39
1.2467082 -0.14939427 2.3060892 6.1850329e-39
1.2465749 -0.14826524 2.288661 6.27723e-39
1.242715 -0.14671296 2.2646997 6.2768698e-39
-1.1623869 -0.11382391 1.8744469 1.0047519e-38
-1.160526 -0.11439033 1.8837748 1.0508138e-38
-1.1586465 -0.11496243 1.893196 1.0047883e-38
-1.1541376 -0.11527953 1.8984179 9.8645709e-39
-1.1657252 -0.11721946 1.9303648 9.5897804e-39
-1.1626338 -0.11769963 1.9382721 9.9574783e-39
-1.1746148 -0.11972259 1.9715861 1.0693244e-38
-1.1721073 -0.12028643 1.9808714 9.9567609e-39
-1.1680409 -0.12069697 1.9876322 9.4965002e-39
-1.1521097 -0.11987868 1.9741566 1.0509207e-38
-1.1381619 -0.11925674 1.9639146 1.1892145e-38
-1.1346061 -0.11972259 1.9715861 1.0786163e-38
-1.1330961 -0.12041245 1.9829468 1.0695406e-38
-1.1327622 -0.12123807 1.9965429 1.0880155e-38
-1.1324236 -0.12207508 2.0103269 1.0695042e-38
-1.0590247 -0.11499118 1.8936695 1.1706679e-38
-1.0558287 -0.11548223 1.901756 1.1430811e-38
-1.0379422 -0.11436187 1.8833061 1.0879072e-38
-1.0279973 -0.11410642 1.8790992 1.0693967e-38
-1.0290549 -0.11507753 1.8950915 1.0786163e-38
-1.0190679 -0.11481886 1.8908318 1.0695766e-38
-1.0106367 -0.11473291 1.8894162 1.0602853e-38
-1.0012193 -0.11453282 1.8861213 1.032555e-38
-0.99306965 -0.11447578 1.885182 1.0141515e-38
-0.98640102 -0.11458991 1.8870615 9.8652925e-39
-0.98364586 -0.11516401 1.8965157 1.0234075e-38
-0.98259461 -0.11594823 1.9094303 1.0602497e-38
-0.96995258 -0.11536631 1.8998471 1.0233714e-38
-0.9804486 -0.11754915 1.9357941 1.1155303e-38
-0.96543342 -0.11668395 1.9215459 1.143261e-38
-0.94516057 -0.11516401 1.8965157 1.0696128e-38
-0.93465394 -0.11481886 1.8908318 1.1248586e-38
-0.92490101 -0.11456136 1.8865913 1.1524812e-38
-0.9204554 -0.11496243 1.893196 1.1157106e-38
-0.91460145 -0.11519287 1.8969909 1.1710633e-38
-0.90576774 -0.11504874 1.8946173 1.1709558e-38
-0.9046436 -0.11588977 1.9084675 1.1708485e-38
-0.90718877 -0.11721946 1.9303648 1.1708478e-38
-0.89479142 -0.11662474 1.920571 1.2077975e-38
-0.87173802 -0.11461849 1.887532 1.1986864e-38
-0.8752057 -0.11609463 1.9118412 1.1156747e-38
-0.87229252 -0.11674321 1.9225218 1.1618083e-38
-0.86405104 -0.11668395 1.9215459 1.217018e-38
-0.85908699 -0.11707022 1.927907 1.1616645e-38
-0.84823847 -0.11665434 1.9210583 1.2261646e-38
-0.83157951 -0.11542424 1.9008011 1.2815897e-38
-0.80000031 -0.11421981 1.8809667 1.3369801e-38
-0.79652214 -0.11481886 1.8908318 1.1985066e-38
-0.79520339 -0.11574389 1.9060651 1.1711004e-38
-0.7876659 -0.11577304 1.9065452 1.207979e-38
-0.77914333 -0.11565654 1.9046266 1.2169457e-38
-0.77590281 -0.11632964 1.9157113 1.2352042e-38
-0.77007645 -0.11662474 1.920571 1.299705e-38
-0.76714694 -0.11736909 1.9328289 1.3918658e-38
-0.76417989 -0.11812301 1.9452443 1.4104129e-38
-0.75415355 -0.1177901 1.9397619 1.2723346e-38
-0.74685508 -0.1178807 1.941254 1.318504e-38
-0.73258972 -0.11686191 1.9244765 1.3459476e-38
-0.717484 -0.11568564 1.9051058 1.4105556e-38
-0.70637482 -0.11513517 1.8960408 1.4197034e-38
-0.69623858 -0.11473291 1.8894162 1.4472908e-38
-0.65609628 -0.1144188 1.8842436 1.3829333e-38
-0.64539713 -0.11388029 1.8753755 1.4291753e-38
-0.62661022 -0.11188482 1.8425142 1.3646383e-38
-0.63095605 -0.11402152 1.877701 1.475272e-38
-0.62535161 -0.11439033 1.8837748 1.465873e-38
-0.58620107 -0.10855602 1.7876955 1.3182889e-38
-0.61868149 -0.11600675 1.9103938 1.3735701e-38
-0.60801309 -0.11545323 1.9012785 1.3827174e-38
-0.57641226 -0.1108596 1.8256308 1.3645309e-38
-0.57273179 -0.1115861 1.8375949 1.4748064e-38
-0.56541109 -0.11161319 1.8380409 1.4381069e-38
-0.56177014 -0.11237711 1.8506211 1.4565812e-38
-0.5587666 -0.11329097 1.8656704 1.3921166e-38
-0.55173862 -0.11340275 1.8675113 1.5670006e-38
-0.54645073 -0.11388029 1.8753755 1.438251e-38
-0.54165709 -0.11447578 1.885182 1.429068e-38
-0.53708196 -0.11513517 1.8960408 1.4935325e-38
-0.53098255 -0.11548223 1.901756 1.5303749e-38
-0.52379054 -0.11559837 1.9036688 1.373858e-38
-0.52130771 -0.11677286 1.9230101 1.1711726e-38
-0.51904023 -0.11803202 1.943746 8.9462229e-39
-0.51645523 -0.11925674 1.9639146 5.1665636e-39
-0.51435536 -0.12063362 1.9865891 2.9545958e-39
-0.5112564 -0.12181631 2.0060654 2.4932631e-39
-0.50458544 -0.1221724 2.0119295 2.2170377e-39
-0.49893922 -0.1227924 2.0221395 2.308876e-39
-0.49350032 -0.12348502 2.0335457 2.3088732e-39
-0.48813161 -0.12421906 2.0456338 2.4932673e-39
-0.48047847 -0.12438711 2.0484011 2.4014332e-39
-0.47114518 -0.12411845 2.043977 2.493633e-39
-0.46259987 -0.12405147 2.0428739 2.125205e-39
-0.45418626 -0.12401801 2.0423229 2.3088774e-39
-0.42755866 -0.11891742 1.9583266 2.4014318e-39
-0.40996087 -0.11618265 1.9132906 2.4021535e-39
-0.40280649 -0.11635908 1.9161961 2.4014374e-39
-0.39333716 -0.11586057 1.9079866 2.4014346e-39
-0.38452756 -0.11554027 1.902712 3.6903657e-39
-0.37794518 -0.11588977 1.9084675 7.7458804e-39
-0.37057328 -0.11600675 1.9103938 1.281591e-38
-0.36337003 -0.11618265 1.9132906 1.5214429e-38
-0.35605478 -0.11632964 1.9157113 1.4108452e-38
-0.34854442 -0.11641802 1.9171666 9.7756248e-39
-0.34067729 -0.11638854 1.9166812 4.6144828e-39
-0.3342523 -0.11686191 1.9244765 2.3092376e-39
-0.330304 -0.11824454 1.9472456 2.3092404e-39
-0.32331577 -0.11858002 1.9527704 2.4014374e-39
-0.31768477 -0.11944265 1.966976 2.4947092e-39
-0.31762376 -0.12249793 2.0172904 2.4021521e-39
-0.31420869 -0.12438711 2.0484011 2.4939904e-39
-0.3061437 -0.12448815 2.0500653 2.4932701e-39
-0.29895678 -0.12496188 2.0578666 2.493633e-39
-0.29076293 -0.12502985 2.0589857 2.2174049e-39
-0.28317663 -0.1253708 2.0646007 2.2163231e-39
-0.2723465 -0.12425263 2.0461867 1.9397362e-39
-0.24515818 -0.11536631 1.8998471 1.847179e-39
-0.23596726 -0.11464707 1.8880026 1.7557023e-39
-0.22927675 -0.11513517 1.8960408 2.124489e-39
-0.22303388 -0.11588977 1.9084675 1.8478993e-39
-0.21659872 -0.11659516 1.9200839 1.7557009e-39
-0.20939016 -0.11692135 1.9254555 1.9400935e-39
-0.20193514 -0.11712987 1.9288894 2.0319332e-39
-0.19356422 -0.11680253 1.9234986 2.034101e-39
-0.18580486 -0.11683221 1.9239875 4.89759e-39
-0.17849527 -0.11715972 1.9293809 7.11319e-39
-0.17197967 -0.11806234 1.9442452 6.7454865e-39
-0.16459613 -0.11842729 1.9502553 6.8373234e-39
-0.15839466 -0.11972259 1.9715861 7.7610943e-39
-0.15177631 -0.12082385 1.9897217 8.0376798e-39
-0.14377654 -0.12088739 1.9907681 8.1298769e-39
-0.13372779 -0.11913313 1.9618789 8.1302384e-39
-0.12505253 -0.11845781 1.9507577 7.5770632e-39
-0.11579272 -0.11710004 1.928398 7.0235265e-39
-0.10924628 -0.11848833 1.9512606 7.5770562e-39
-0.10057532 -0.1176093 1.9367845 7.3930251e-39
-0.092620052 -0.11748907 1.9348047 7.5767003e-39
-0.08465942 -0.11733914 1.9323356 6.6554544e-39
-0.076816984 -0.11733914 1.9323356 7.5745283e-39
-0.069080338 -0.1175191 1.9352993 4.2515003e-39
-0.061257195 -0.11757922 1.9362892 1.7582302e-39
-0.053494487 -0.1177901 1.9397619 2.0337297e-39
-0.045563541 -0.11763939 1.9372802 1.9415327e-39
-0.037547316 -0.11715972 1.9293809 1.8489783e-39
-0.029785188 -0.11742906 1.9338163 1.849337e-39
-0.021769924 -0.11653606 1.9191104 1.7575015e-39
-0.014113536 -0.11763939 1.9372802 1.7571428e-39
-0.0062751197 -0.11809266 1.9447446 1.849337e-39
0.0016970127 -0.12388433 2.0401216 1.849337e-39
0.010003855 -0.12421906 2.0456338 1.8493398e-39
0.019712228 -0.13376047 2.2027614 1.849337e-39
0.029040867 -0.13557498 2.2326424 1.8493384e-39
0.037856501 -0.13470107 2.218251 1.8496972e-39
0.046627082 -0.13403346 2.2072568 1.7571428e-39
0.056424253 -0.13605645 2.2405715 1.9411753e-39
0.065966688 -0.13698889 2.2559268 1.8493412e-39
0.072969861 -0.1330636 2.1912854 1.8493398e-39
0.08090318 -0.13150308 2.1655867 1.8493384e-39
0.089564174 -0.13131526 2.1624937 1.9411739e-39
0.096765272 -0.12921156 2.1278501 1.9415341e-39
0.10328215 -0.12661381 2.0850704 2.0333738e-39
0.11076826 -0.12550771 2.0668552 2.0337325e-39
0.11720483 -0.12345187 2.0329998 1.9415369e-39
0.12323858 -0.12127005 1.9970696 1.941897e-39
0.13082609 -0.12079211 1.9891988 2.0337311e-39
0.13871707 -0.12063362 1.9865891 2.5869049e-39
0.14443001 -0.11870249 1.9547871 5.2620089e-39
0.15072902 -0.11742906 1.9338163 9.4122401e-39
0.15761125 -0.11671357 1.9220337 1.0243437e-38
0.16482605 -0.11630021 1.9152266 9.6902647e-39
0.17225045 -0.11606532 1.9113585 7.7527258e-39
0.17937376 -0.11565654 1.9046266 4.432251e-39
0.18677482 -0.11545323 1.9012785 2.4947092e-39
0.19552235 -0.11606532 1.9113585 2.0340912e-39
0.20415585 -0.11656561 1.919597 2.03445e-39
0.21098368 -0.11603603 1.910876 2.0337325e-39
0.21764037 -0.11545323 1.9012785 2.0337311e-39
0.22781686 -0.11671357 1.9220337 1.9418984e-39
0.24455792 -0.12114222 1.9949646 1.941897e-39
0.25760987 -0.1235182 2.0340922 1.9415327e-39
0.26722944 -0.12415197 2.044529 1.9415327e-39
0.27612376 -0.12442077 2.0489554 2.0337311e-39
0.28436252 -0.12438711 2.0484011 2.1259267e-39
0.291493 -0.12388433 2.0401216 1.941897e-39
0.29808608 -0.12318723 2.0286417 1.9415355e-39
0.30420008 -0.12233495 2.0146065 2.034087e-39
0.31088734 -0.12175179 2.0050027 2.4954267e-39
0.31535006 -0.12034941 1.9819086 3.971633e-39
0.31831071 -0.11845781 1.9507577 6.3697927e-39
0.32289991 -0.11724936 1.9308572 8.1225859e-39
0.32864094 -0.11650652 1.9186242 8.8601495e-39
0.33481559 -0.11594823 1.9094303 9.0445422e-39
0.34093136 -0.11539527 1.900324 8.7686714e-39
0.34629697 -0.11461849 1.887532 8.8605069e-39
0.34968567 -0.11323516 1.8647515 9.2296495e-39
0.35446003 -0.11234964 1.8501688 9.5980719e-39
0.35855171 -0.11128897 1.8327017 9.044538e-39
0.36448982 -0.11083287 1.8251907 8.4917258e-39
0.37324715 -0.11123512 1.8318149 8.4913656e-39
0.37866595 -0.11064615 1.8221157 8.5824837e-39
0.39047801 -0.11191206 1.8429627 8.5832025e-39
0.40177202 -0.1129847 1.8606269 8.491367e-39
0.40922287 -0.11295694 1.8601698 8.4913642e-39
0.42038754 -0.11393674 1.876305 8.2147773e-39
0.43174759 -0.11493368 1.8927227 8.3988113e-39
0.447826 -0.11712987 1.9288894 8.2140627e-39
0.45810544 -0.11775992 1.939265 8.6746779e-39
0.46066606 -0.11641802 1.9171666 8.3055366e-39
0.47481954 -0.11800173 1.9432471 8.0296686e-39
0.48085493 -0.11754915 1.9357941 8.0300273e-39
0.48808742 -0.11739907 1.9333224 8.3062527e-39
0.49542779 -0.11727927 1.9313496 7.7541579e-39
0.50045753 -0.11662474 1.920571 8.1222216e-39
0.52175266 -0.11972259 1.9715861 7.9378303e-39
0.51753974 -0.11522174 1.8974663 7.4772151e-39
0.52171028 -0.11444729 1.8847127 7.6616064e-39
0.53374422 -0.11539527 1.900324 7.4772151e-39
0.53794605 -0.11464707 1.8880026 7.4772109e-39
0.54411596 -0.11433344 1.8828378 7.3846523e-39
0.55646271 -0.11530844 1.8988941 7.4761333e-39
0.56261718 -0.11499118 1.8936695 7.6605246e-39
0.57158941 -0.11525062 1.8979421 7.661242e-39
0.57654613 -0.11470427 1.8889447 7.3850153e-39
0.58728957 -0.11530844 1.8988941 7.4772137e-39
0.59619254 -0.11554027 1.902712 7.7527202e-39
0.60437042 -0.11562745 1.9041476 7.937473e-39
0.61086935 -0.11539527 1.900324 7.5694037e-39
0.61610752 -0.11493368 1.8927227 7.4764878e-39
0.67291176 -0.12398456 2.0417721 6.9243973e-39
0.68193394 -0.12411845 2.043977 7.199545e-39
0.63803595 -0.11473291 1.8894162 7.5683289e-39
0.64425713 -0.11447578 1.885182 7.4764934e-39
0.64932126 -0.11402152 1.877701 7.3850153e-39
0.66203201 -0.11490496 1.8922496 7.0162341e-39
0.66870892 -0.11473291 1.8894162 7.108071e-39
0.69050783 -0.11712987 1.9288894 7.5679702e-39
0.69338983 -0.11630021 1.9152266 7.4750501e-39
0.70941812 -0.1176695 1.937776 7.4750515e-39
0.71986216 -0.11809266 1.9447446 7.1991863e-39
0.71779829 -0.11647701 1.918138 6.8307639e-39
0.72119784 -0.11577304 1.9065452 6.8307625e-39
0.73429817 -0.11662474 1.920571 6.8307653e-39
0.74265802 -0.11671357 1.9220337 7.0151551e-39
0.75913113 -0.11806234 1.9442452 7.2903001e-39
0.76505721 -0.11775992 1.939265 7.0140761e-39
0.79912865 -0.12175179 2.0050027 6.7382095e-39
0.76167828 -0.11487625 1.8917768 6.9229609e-39
0.76136577 -0.11368317 1.8721293 6.462703e-39
0.76555634 -0.11317941 1.8638333 6.4623443e-39
0.78275585 -0.11458991 1.8870615 6.554177e-39
0.79717022 -0.11556932 1.9031903 6.6463684e-39
0.84326303 -0.12107842 1.9939138 6.6463684e-39
0.846008 -0.12031791 1.9813899 6.4623387e-39
0.85204262 -0.12003518 1.9767339 6.6467314e-39
0.86006522 -0.12003518 1.9767339 6.8311226e-39
0.855358 -0.11827496 1.9477465 6.7382067e-39
0.86104774 -0.11797145 1.9427484 6.5538155e-39
0.87431699 -0.11870249 1.9547871 6.3697829e-39
0.89169008 -0.11997253 1.9757022 6.2779488e-39
0.90537894 -0.12072866 1.9881541 6.5541784e-39
0.9189986 -0.12146229 2.0002353 6.4616198e-39
0.92809743 -0.12159078 2.0023515 6.4612597e-39
0.94020265 -0.1221075 2.0108607 6.2772286e-39
0.9426055 -0.12136609 1.9986513 6.2768684e-39
0.95932776 -0.12246531 2.016753 6.6449307e-39
0.96085793 -0.12162295 2.0028811 6.3683466e-39
0.97388184 -0.12223737 2.0129993 6.553098e-39
0.94269943 -0.11733914 1.9323356 6.3690655e-39
0.94499439 -0.11665434 1.9210583 6.2765097e-39
0.94869876 -0.11615329 1.9128072 6.3683466e-39
0.95309073 -0.11574389 1.9060651 6.3690697e-39
0.97881585 -0.11791094 1.941752 6.3694298e-39
1.0086863 -0.12053873 1.9850265 6.3687081e-39
1.0261594 -0.12165513 2.0034111 6.2754363e-39
1.0572309 -0.12435346 2.047847 5.815533e-39
1.1632102 -0.13470107 2.218251 5.9995655e-39
1.1989101 -0.13776888 2.2687716 5.8158917e-39
1.203789 -0.13727523 2.2606423 6.0928331e-39
1.2107947 -0.13702972 2.2565994 6.1846714e-39
1.2317011 -0.13834931 2.2783301 6.000283e-39
1.2342621 -0.13760394 2.2660553 6.0006431e-39
1.2360595 -0.1367851 2.2525709 6.0928359e-39
-1.1569445 -0.1057191 1.8656704 8.8500532e-39
-1.1582205 -0.10653292 1.8800324 9.3110327e-39
-1.1546044 -0.10690458 1.8865913 1.0141156e-38
-1.156167 -0.1077639 1.901756 1.0509223e-38
-1.1708001 -0.10986122 1.9387684 1.0141878e-38
-1.1665162 -0.11019987 1.9447446 9.8656457e-39
-1.1715639 -0.11143067 1.9664651 1.0049315e-38
-1.1635829 -0.11143067 1.9664651 9.4972289e-39
-1.1562026 -0.11148859 1.9674872 9.6812614e-39
-1.1402169 -0.11071176 1.9537783 1.0140433e-38
-1.1276315 -0.11025652 1.9457443 1.1339695e-38
-1.119447 -0.11022818 1.9452443 1.0419181e-38
-1.1129819 -0.11036997 1.9477465 1.1710995e-38
-1.1084992 -0.11071176 1.9537783 1.1156746e-38
-1.0837884 -0.10902365 1.9239875 1.0602496e-38
-1.0553292 -0.10693122 1.8870615 1.097164e-38
-1.0523921 -0.10741314 1.895566 1.0603575e-38
-1.0366528 -0.10658586 1.8809667 1.0234428e-38
-1.0259601 -0.10626903 1.8753755 1.0417745e-38
-1.0264854 -0.10711812 1.8903598 1.0601772e-38
-1.0142549 -0.10663885 1.8819017 1.1616284e-38
-1.0004004 -0.10598026 1.8702793 1.0879802e-38
-0.99011934 -0.10569305 1.8652109 1.0142595e-38
-0.98351854 -0.10579731 1.8670508 9.9585602e-39
-0.9793222 -0.10616384 1.8735192 1.0326268e-38
-0.97630888 -0.10666537 1.8823696 1.0233349e-38
-0.97399694 -0.10725202 1.8927227 1.0786522e-38
-0.9612686 -0.10669189 1.8828378 1.0418819e-38
-0.96466273 -0.10792656 1.9046266 1.087944e-38
-0.95549053 -0.1077639 1.901756 1.1617007e-38
-0.93857735 -0.10671843 1.8833061 1.115603e-38
-0.92954654 -0.10655939 1.8804995 1.1340061e-38
-0.92329049 -0.10671843 1.8833061 1.1339341e-38
-0.92068559 -0.10730568 1.8936695 1.1246421e-38
-0.91277182 -0.10727884 1.893196 1.2539313e-38
-0.90260541 -0.10698456 1.8880026 1.2356363e-38
-0.90123582 -0.10773684 1.9012785 1.1618086e-38
-0.9021284 -0.10877487 1.919597 1.1615923e-38
-0.88825679 -0.10803528 1.9065452 1.1801031e-38
-0.8648383 -0.10611133 1.8725923 1.2170909e-38
-0.86927879 -0.10760172 1.8988941 1.1249321e-38
-0.86854309 -0.10847233 1.9142581 1.1157832e-38
-0.86230022 -0.10866466 1.9176521 1.1893236e-38
-0.85581797 -0.10883006 1.920571 1.2075105e-38
-0.84438187 -0.10836274 1.9123241 1.235348e-38
-0.82928926 -0.10741314 1.895566 1.2447113e-38
-0.81668854 -0.10677155 1.8842436 1.216945e-38
-0.80383974 -0.10608508 1.8721293 1.2630794e-38
-0.7952584 -0.10595408 1.8698174 1.2813399e-38
-0.7935493 -0.10674498 1.8837748 1.3641716e-38
-0.79221165 -0.10760172 1.8988941 1.3183971e-38
-0.7839151 -0.10752083 1.8974663 1.2999225e-38
-0.77388674 -0.10719842 1.8917768 1.2997417e-38
-0.76659197 -0.10725202 1.8927227 1.3182523e-38
-0.76005042 -0.10741314 1.895566 1.3182169e-38
-0.7611233 -0.10866466 1.9176521 1.318218e-38
-0.75775492 -0.10930143 1.9288894 1.3367292e-38
-0.74840105 -0.1090791 1.9249659 1.2537881e-38
-0.74190897 -0.10927358 1.928398 1.2723709e-38
-0.71514457 -0.10760172 1.8988941 1.5024994e-38
-0.70338023 -0.10698456 1.8880026 1.4472543e-38
-0.67684811 -0.10642721 1.8781669 1.3553462e-38
-0.65252346 -0.10619012 1.8739829 1.3184337e-38
-0.63922185 -0.10525223 1.8574315 1.3922256e-38
-0.6183337 -0.10302788 1.8181775 1.4380712e-38
-0.61316335 -0.10340036 1.8247508 1.5210463e-38
-0.59317636 -0.10125279 1.7868518 1.6409013e-38
-0.58262414 -0.10068249 1.7767873 1.447328e-38
-0.57730985 -0.10101438 1.7826444 1.4105573e-38
-0.572366 -0.10142035 1.7898088 1.4749136e-38
-0.56430161 -0.1012767 1.7872735 1.3735699e-38
-0.5604881 -0.10190216 1.7983114 1.4565812e-38
-0.55437475 -0.10212047 1.802164 1.4198473e-38
-0.55139196 -0.102929 1.8164325 1.3736059e-38
-0.54942453 -0.10395156 1.834478 1.3827534e-38
-0.5427683 -0.10410291 1.8371489 1.5025717e-38
-0.53963345 -0.10494327 1.8519791 1.4935677e-38
-0.53777379 -0.10605886 1.8716664 1.3922606e-38
-0.53347468 -0.10671843 1.8833061 1.3830056e-38
-0.52859259 -0.10727884 1.893196 1.217306e-38
-0.52273899 -0.10765573 1.8998471 8.3934163e-39
-0.5194605 -0.10858215 1.9161961 4.7070344e-39
-0.51546705 -0.10938503 1.9303648 2.9542412e-39
-0.51141411 -0.11019987 1.9447446 2.492903e-39
-0.50861663 -0.11131502 1.9644241 2.3085131e-39
-0.50669163 -0.11265969 1.9881541 2.1241246e-39
-0.50112301 -0.11322462 1.9981238 2.3085145e-39
-0.49615628 -0.11394637 2.0108607 2.2166776e-39
-0.49099457 -0.11464673 2.0232203 2.3085117e-39
-0.48563847 -0.11532476 2.0351856 2.124482e-39
-0.47866535 -0.1156356 2.0406713 2.1241232e-39
-0.46786106 -0.11501557 2.0297294 2.2166804e-39
-0.45839441 -0.11470804 2.0243022 2.0326465e-39
-0.44981793 -0.1146161 2.0226798 2.1248449e-39
-0.42274725 -0.10972074 1.9362892 2.2166804e-39
-0.40923691 -0.10822605 1.9099119 2.3092362e-39
-0.40199256 -0.10836274 1.9123241 2.0326493e-39
-0.39264449 -0.10792656 1.9046266 2.2170405e-39
-0.38394859 -0.10765573 1.8998471 3.5981715e-39
-0.37690008 -0.10784517 1.9031903 8.0217527e-39
-0.36945456 -0.10792656 1.9046266 1.34602e-38
-0.36218014 -0.10806249 1.9070253 1.5305541e-38
-0.35435119 -0.10803528 1.9065452 1.2079068e-38
-0.34696293 -0.10814421 1.9084675 5.9974075e-39
-0.33896101 -0.10806249 1.9070253 2.5858231e-39
-0.33205771 -0.10833538 1.9118412 2.2166832e-39
-0.32577929 -0.10883006 1.920571 2.4017947e-39
-0.31758177 -0.10869219 1.918138 2.3095991e-39
-0.31161278 -0.10932928 1.9293809 2.3095977e-39
-0.30849949 -0.11102694 1.9593402 2.2181209e-39
-0.30902484 -0.11415862 2.0146065 2.3092404e-39
-0.30229643 -0.11470804 2.0243022 2.4936288e-39
-0.29653868 -0.11566678 2.0412216 2.2166818e-39
-0.28879941 -0.11588549 2.0450811 1.9404565e-39
-0.28118297 -0.11616791 2.0500653 2.0319304e-39
-0.25004518 -0.10645362 1.8786329 1.9393747e-39
-0.24098554 -0.10582341 1.8675113 1.8471776e-39
-0.23346378 -0.10584952 1.867972 1.7553421e-39
-0.22734097 -0.10653292 1.8800324 1.8479007e-39
-0.22180381 -0.10754777 1.8979421 1.8479021e-39
-0.214801 -0.10789942 1.9041476 1.8478979e-39
-0.20743817 -0.10808972 1.9075059 1.9400921e-39
-0.20009984 -0.10830802 1.9113585 1.8489825e-39
-0.19195485 -0.10808972 1.9075059 3.3277363e-39
-0.18435253 -0.10817148 1.9089488 7.112104e-39
-0.177141 -0.10849977 1.9147422 6.5610938e-39
-0.17001493 -0.10891294 1.9220337 6.1919526e-39
-0.16287591 -0.10935715 1.9298728 6.9309595e-39
-0.15611795 -0.11011501 1.9432471 8.0384015e-39
-0.149073 -0.11074034 1.9542826 8.1305985e-39
-0.14005691 -0.10988937 1.939265 8.2227914e-39
-0.13107836 -0.10896827 1.9230101 7.9451241e-39
-0.12371371 -0.10935715 1.9298728 7.7614545e-39
-0.11448054 -0.10803528 1.9065452 7.85329e-39
-0.10755533 -0.10885767 1.9210583 7.9454842e-39
-0.099254966 -0.10830802 1.9113585 7.6696204e-39
-0.091428421 -0.10822605 1.9099119 7.576343e-39
-0.083719231 -0.10828069 1.910876 7.577059e-39
-0.075963892 -0.10828069 1.910876 7.3897727e-39
-0.068243004 -0.10833538 1.9118412 3.051134e-39
-0.060468476 -0.10830802 1.9113585 2.0340912e-39
-0.052804496 -0.10849977 1.9147422 1.9418928e-39
-0.044999324 -0.10841751 1.9132906 1.7575015e-39
-0.037074905 -0.10795372 1.9051058 1.8489783e-39
-0.029454157 -0.10836274 1.9123241 1.849337e-39
-0.021502843 -0.10741314 1.895566 1.849337e-39
-0.013938766 -0.10841751 1.9132906 1.8489797e-39
-0.0061830021 -0.10858215 1.9161961 1.8493384e-39
0.0015669605 -0.10674498 1.8837748 1.8489797e-39
0.010033677 -0.11626235 2.0517318 1.8493384e-39
0.019689312 -0.12467541 2.2002008 1.8496986e-39
0.029308803 -0.12768097 2.2532413 1.9418956e-39
0.037385486 -0.12413429 2.1906512 1.8497e-39
0.046036527 -0.1234911 2.1793008 1.8496972e-39
0.054992083 -0.12374043 2.1837008 1.8489811e-39
0.063909993 -0.1238476 2.1855919 1.9411781e-39
0.072072856 -0.12264382 2.1643484 1.8497e-39
0.079762414 -0.12098367 2.135051 1.9411767e-39
0.087319456 -0.11946758 2.1082959 1.9415383e-39
0.094352104 -0.11756867 2.074785 2.0333724e-39
0.1015757 -0.11619937 2.0506206 1.9415369e-39
0.10930607 -0.1155733 2.0395718 2.0337325e-39
0.1154074 -0.11343419 2.001822 2.0337325e-39
0.119948 -0.11014328 1.943746 2.125568e-39
0.12790242 -0.11019987 1.9447446 2.125568e-39
0.13589995 -0.11028486 1.9462444 2.402515e-39
0.14262556 -0.10938503 1.9303648 4.1549438e-39
0.14946912 -0.10866466 1.9176521 8.213341e-39
0.15665676 -0.10825337 1.9103938 9.5051602e-39
0.16395506 -0.10795372 1.9051058 9.505156e-39
0.17121306 -0.10765573 1.8998471 7.0151608e-39
0.17785251 -0.10701124 1.8884736 3.8787185e-39
0.18455021 -0.10645362 1.8786329 2.2184825e-39
0.19390686 -0.10741314 1.895566 2.0337325e-39
0.20271668 -0.10800808 1.9060651 1.9418956e-39
0.20882271 -0.10717164 1.8913043 1.9415355e-39
0.21451584 -0.10619012 1.8739829 1.9415369e-39
0.22507416 -0.10760172 1.8988941 1.9415369e-39
0.23675951 -0.10944084 1.9313496 1.9415355e-39
0.25172591 -0.11263011 1.9876322 1.9415341e-39
0.26430306 -0.1145855 2.0221395 1.9415341e-39
0.27367952 -0.11507728 2.0308182 1.9415341e-39
0.28214869 -0.11516996 2.032454 2.0337311e-39
0.28977513 -0.11492314 2.0280983 2.0337325e-39
0.29689276 -0.11449375 2.0205207 1.9415355e-39
0.30371517 -0.11397664 2.011395 1.9415341e-39
0.31031206 -0.1134042 2.0012929 1.9415341e-39
0.31403473 -0.11183735 1.973642 2.0340898e-39
0.31692249 -0.11005852 1.94225 2.9567622e-39
0.32199657 -0.10910684 1.9254555 5.2630893e-39
0.32764456 -0.10839012 1.9128072 7.8463592e-39
0.33338618 -0.10773684 1.9012785 8.4917286e-39
0.33863637 -0.10695789 1.887532 8.8605111e-39
0.34321648 -0.10600644 1.8707415 8.9527025e-39
0.34442595 -0.10407765 1.8367033 8.859788e-39
0.34967464 -0.10342529 1.8251907 8.9519836e-39
0.35409445 -0.10255991 1.8099189 8.5835613e-39
0.35972014 -0.10207187 1.8013064 8.1232992e-39
0.36633351 -0.10187796 1.7978843 8.1229418e-39
0.37107477 -0.10118115 1.7855874 8.3995301e-39
0.37867889 -0.1012767 1.7872735 8.1233034e-39
0.38429958 -0.10084816 1.779711 8.215499e-39
0.39750287 -0.10238857 1.8068951 8.0307462e-39
0.40804997 -0.10320137 1.8212391 8.122223e-39
0.46407405 -0.10944084 1.9313496 7.9374744e-39
0.4782567 -0.11091212 1.957314 7.9378331e-39
0.50160277 -0.1090791 1.9249659 7.9374744e-39
0.51267409 -0.10977689 1.9372802 7.8456347e-39
0.51567674 -0.10556301 1.862916 7.6616036e-39
0.52949125 -0.10682473 1.885182 7.6619665e-39
0.52975529 -0.10535562 1.859256 7.2002667e-39
0.53677386 -0.10525223 1.8574315 7.1080682e-39
0.55093539 -0.10653292 1.8800324 7.2921036e-39
0.55635506 -0.10611133 1.8725923 7.3842964e-39
0.56704056 -0.10669189 1.8828378 7.291742e-39
0.57183784 -0.10616384 1.8735192 7.3842978e-39
0.58421242 -0.10703795 1.8889447 7.4761333e-39
0.59011197 -0.10671843 1.8833061 7.5679688e-39
0.59775543 -0.10671843 1.8833061 7.7534377e-39
0.6035971 -0.10640082 1.877701 7.6608805e-39
0.60910285 -0.10603265 1.8712039 7.1995436e-39
0.62176841 -0.10690458 1.8865913 7.1999037e-39
0.6298961 -0.10698456 1.8880026 7.2917378e-39
0.63345146 -0.10629536 1.8758402 7.1999023e-39
0.6383757 -0.10584952 1.867972 7.2006226e-39
0.64262724 -0.1053039 1.8583434 7.108427e-39
0.65289378 -0.10574515 1.8661304 6.9233197e-39
0.6570664 -0.10520061 1.8565205 7.015158e-39
0.67620844 -0.10703795 1.8889447 7.3835789e-39
0.68455791 -0.10714488 1.8908318 7.0155125e-39
0.6972822 -0.10792656 1.9046266 6.8307639e-39
0.70821917 -0.10841751 1.9132906 6.9229623e-39
0.71006262 -0.10752083 1.8974663 6.9222407e-39
0.71418369 -0.10698456 1.8880026 6.9222421e-39
0.72274739 -0.10711812 1.8903598 6.6463754e-39
0.73023713 -0.10709138 1.8898878 6.8314856e-39
0.74516171 -0.10814421 1.9084675 7.1066319e-39
0.74856722 -0.10752083 1.8974663 6.7378466e-39
0.75797784 -0.1077639 1.901756 7.0144335e-39
0.75977981 -0.10693122 1.8870615 6.9218777e-39
0.76363176 -0.10640082 1.877701 6.6460111e-39
0.76801431 -0.10595408 1.8698174 6.6463726e-39
0.78119814 -0.10671843 1.8833061 6.5538169e-39
0.79437453 -0.10746696 1.8965157 6.5541756e-39
0.84795284 -0.11361443 2.0050027 6.4616198e-39
0.84182203 -0.11172085 1.9715861 6.3697829e-39
0.8540495 -0.11227639 1.9813899 6.5541756e-39
0.86457998 -0.11260055 1.9871105 6.4619828e-39
0.85645968 -0.11051213 1.9502553 6.4619828e-39
0.85950387 -0.10988937 1.939265 6.2775901e-39
0.88183069 -0.11172085 1.9715861 6.3694242e-39
0.8999095 -0.11298607 1.9939138 6.2772286e-39
0.906331 -0.11277815 1.9902446 6.2775915e-39
0.92118901 -0.11361443 2.0050027 6.5538169e-39
0.92809743 -0.11346418 2.0023515 6.6452922e-39
0.93895572 -0.11379525 2.0081937 6.1846756e-39
0.93691677 -0.112571 1.9865891 6.3683466e-39
0.95677906 -0.11397664 2.011395 6.8289618e-39
0.95580077 -0.11289687 1.9923397 6.2775873e-39
0.96745104 -0.11331434 1.999707 6.3697843e-39
0.94221842 -0.10944084 1.9313496 6.2768698e-39
0.93998563 -0.10828069 1.910876 6.1846728e-39
0.93967706 -0.10735938 1.8946173 6.1846742e-39
0.94547361 -0.10714488 1.8908318 6.3676277e-39
0.96593344 -0.10858215 1.9161961 6.73569e-39
0.97916251 -0.10919014 1.9269257 6.4598248e-39
0.98497748 -0.10896827 1.9230101 5.9080901e-39
1.0024577 -0.11003029 1.941752 6.0002816e-39
1.0242611 -0.1106832 1.9532743 5.999204e-39
1.1014999 -0.11721533 2.0685494 5.9080817e-39
1.17575 -0.12417021 2.1912854 5.907723e-39
1.2009809 -0.12588266 2.2215054 5.9073671e-39
1.2064569 -0.12551436 2.2150061 5.8155344e-39
1.2165142 -0.12562463 2.2169518 5.9080873e-39
-1.1288484 -0.09576375 1.8203633 9.3117572e-39
-1.1409379 -0.097426966 1.8519791 9.7730941e-39
-1.1232551 -0.096553072 1.8353674 9.4965072e-39
-1.1458055 -0.099148974 1.8847127 9.4957841e-39
-1.1548306 -0.10060152 1.9123241 9.7723696e-39
-1.1488104 -0.10075422 1.9152266 1.0141512e-38
-1.1532909 -0.10183621 1.9357941 9.8663687e-39
-1.1442641 -0.10173216 1.9338163 9.4983093e-39
-1.1378689 -0.10186226 1.9362892 9.8663715e-39
-1.1294327 -0.10181018 1.9352993 9.7730913e-39
-1.1204326 -0.10170618 1.9333224 9.77345e-39
-1.1117345 -0.10162833 1.9318424 9.2209965e-39
-1.1095566 -0.10214964 1.941752 9.6819775e-39
-1.1090716 -0.10283538 1.9547871 1.0693974e-38
-1.0946375 -0.10222829 1.9432471 1.0970555e-38
-1.0537534 -0.099124297 1.8842436 1.0602853e-38
-1.0279973 -0.09885367 1.8790992 1.0603942e-38
-1.0334525 -0.10012102 1.9031903 1.0328066e-38
-0.97605669 -0.09747465 1.8528856 1.0418821e-38
-0.97330081 -0.097954117 1.8619998 1.0511379e-38
-0.97099763 -0.098486997 1.8721293 1.0972709e-38
-0.97399694 -0.099570356 1.8927227 1.0971989e-38
-0.93999541 -0.096858323 1.84117 1.1339697e-38
-0.90948975 -0.097594075 1.8551558 1.1153509e-38
-0.90351033 -0.097761765 1.8583434 1.2533201e-38
-0.89333689 -0.09747465 1.8528856 1.3366909e-38
-0.88538349 -0.097426966 1.8519791 1.2354568e-38
-0.88305146 -0.098002322 1.862916 1.1709202e-38
-0.88419348 -0.0989765 1.8814341 1.0971999e-38
-0.86793005 -0.098002322 1.862916 1.1156746e-38
-0.84335291 -0.096064024 1.8260711 1.244606e-38
-0.84408534 -0.096999861 1.8438604 1.2445348e-38
-0.85428697 -0.099050343 1.8828378 1.1340427e-38
-0.85817021 -0.10039864 1.9084675 1.180032e-38
-0.85063905 -0.10042396 1.9089488 1.1799232e-38
-0.84310412 -0.10044929 1.9094303 1.226093e-38
-0.80863798 -0.097236678 1.848362 1.1985423e-38
-0.78484923 -0.095259853 1.8107847 1.2997772e-38
-0.78274208 -0.0959021 1.8229932 1.4195247e-38
-0.78079563 -0.09657649 1.8358124 1.290596e-38
