# .PCD v0.7 - Point Cloud Data file format
VERSION 0.7
FIELDS x y z rgb
SIZE 4 4 4 4
TYPE F F F F
COUNT 1 1 1 1
WIDTH 1038
HEIGHT 1
VIEWPOINT 0 0 0 1 0 0 0
POINTS 1038
DATA ascii
-2.7203932e-06 3.2229865e-44 -2.5803618e-06 2.3509886e-38
-2.7203932e-06 3.2229865e-44 -2.5803618e-06 2.3509886e-38
-2.7203932e-06 3.2229865e-44 -2.5803618e-06 2.3509886e-38
-2.7203932e-06 3.2229865e-44 -2.5803618e-06 2.3509886e-38
-2.7203932e-06 3.2229865e-44 -2.5803618e-06 2.3509886e-38
-2.7203932e-06 3.2229865e-44 -2.5803618e-06 2.3509886e-38
-2.7203932e-06 3.2229865e-44 -2.5803618e-06 2.3509886e-38
-2.7203932e-06 3.2229865e-44 -2.5803618e-06 2.3509886e-38
-2.7203932e-06 3.2229865e-44 -2.5803618e-06 2.3509886e-38
-2.7203932e-06 3.2229865e-44 -2.5803618e-06 2.3509886e-38
-2.7203932e-06 3.2229865e-44 -2.5803618e-06 2.3509886e-38
-2.7203932e-06 3.2229865e-44 -2.5803618e-06 2.3509886e-38
-2.7203932e-06 3.2229865e-44 -2.5803618e-06 2.3509886e-38
-2.7203932e-06 3.2229865e-44 -2.5803618e-06 2.3509886e-38
-2.7203932e-06 3.2229865e-44 -2.5803618e-06 2.3509886e-38
-2.7203932e-06 3.2229865e-44 -2.5803618e-06 2.3509886e-38
-2.7203932e-06 3.2229865e-44 -2.5803618e-06 2.3509886e-38
-2.7203932e-06 3.2229865e-44 -2.5803618e-06 2.3509886e-38
-2.7203932e-06 3.2229865e-44 -2.5803618e-06 2.3509886e-38
-2.7203932e-06 3.2229865e-44 -2.5803618e-06 2.3509886e-38
-2.7203932e-06 3.2229865e-44 -2.5803618e-06 2.3509886e-38
-2.7203932e-06 3.2229865e-44 -2.5803618e-06 2.3509886e-38
-2.7203932e-06 3.2229865e-44 -2.5803618e-06 2.3509886e-38
-2.7203932e-06 3.2229865e-44 -2.5803618e-06 2.3509886e-38
-2.7203932e-06 3.2229865e-44 -2.5803618e-06 2.3509886e-38
-2.7203932e-06 3.2229865e-44 -2.5803618e-06 2.3509886e-38
-2.7203932e-06 3.2229865e-44 -2.5803618e-06 2.3509886e-38
-2.7203932e-06 3.2229865e-44 -2.5803618e-06 2.3509886e-38
-2.7203932e-06 3.2229865e-44 -2.5803618e-06 2.3509886e-38
-2.7203932e-06 3.2229865e-44 -2.5803618e-06 2.3509886e-38
-2.7203932e-06 3.2229865e-44 -2.5803618e-06 2.3509886e-38
-2.7203932e-06 3.2229865e-44 -2.5803618e-06 2.3509886e-38
-2.7203932e-06 3.2229865e-44 -2.5803618e-06 2.3509886e-38
-2.7203932e-06 3.2229865e-44 -2.5803618e-06 2.3509886e-38
0.55239552 -1.5143749 3.3031809 2.3509886e-38
0.56877947 -1.5223452 3.3205662 2.3509886e-38
0.60015541 -1.5691442 3.4226451 2.3509886e-38
0.63500255 -1.6226962 3.5394533 2.3509886e-38
0.67427045 -1.6849258 3.6751897 2.3509886e-38
0.69322449 -1.6947984 3.6967239 2.3509886e-38
0.71275204 -1.7056251 3.7203395 2.3509884e-38
0.74468434 -1.7450714 3.8063805 2.3415895e-38
0.78174961 -1.7946986 3.914628 2.312818e-38
0.82714766 -1.8610976 4.0594587 2.3028086e-38
0.90735704 -2.0016994 4.3661423 2.2381281e-38
0.96168089 -2.0809035 4.5389032 2.1737714e-38
0.98127872 -2.0834017 4.5443521 2.109343e-38
1.0403105 -2.1679869 4.7288513 2.0265109e-38
1.1181699 -2.2880337 4.9906993 2.0082161e-38
0.54951847 -1.4931512 3.2859769 2.3509886e-38
0.56530827 -1.4996601 3.3003011 2.3509886e-38
0.59988421 -1.5545505 3.4210985 2.3509886e-38
0.63234192 -1.6015923 3.5246232 2.3509886e-38
0.65611577 -1.6250451 3.5762355 2.3509886e-38
0.67413282 -1.6335329 3.5949149 2.3509886e-38
0.69101977 -1.6389806 3.6069036 2.3509886e-38
0.71210438 -1.6539521 3.6398513 2.3417333e-38
0.77692896 -1.7678419 3.8904886 2.3223247e-38
0.82361472 -1.8367434 4.04212 2.3212837e-38
0.90422821 -1.9771382 4.3510866 2.3119205e-38
0.96168089 -2.0624821 4.5389032 2.1829548e-38
0.98127872 -2.0649581 4.5443521 2.0908676e-38
1.0461916 -2.1609426 4.7555847 2.0725726e-38
1.119646 -2.2707725 4.9972878 2.0358028e-38
1.3443904 -2.2397268 4.9289656 2.3325136e-38
1.3443904 -2.2397268 4.9289656 2.3509886e-38
1.3443904 -2.2397268 4.9289656 2.3509886e-38
1.3443904 -2.2397268 4.9289656 2.3509886e-38
1.3443904 -2.2397268 4.9289656 2.3509886e-38
1.3443904 -2.2397268 4.9289656 2.3509886e-38
1.3443904 -2.2397268 4.9289656 2.3509886e-38
1.3443904 -2.2397268 4.9289656 2.3509886e-38
1.3443904 -2.2397268 4.9289656 2.3509886e-38
1.3443904 -2.2397268 4.9289656 2.3509886e-38
1.3443904 -2.2397268 4.9289656 2.3509886e-38
1.3443904 -2.2397268 4.9289656 2.3509886e-38
1.3443904 -2.2397268 4.9289656 2.3509886e-38
1.3443904 -2.2397268 4.9289656 2.3509886e-38
1.3443904 -2.2397268 4.9289656 2.3509886e-38
1.3443904 -2.2397268 4.9289656 2.3509886e-38
1.3443904 -2.2397268 4.9289656 2.3509886e-38
1.3443904 -2.2397268 4.9289656 2.3509886e-38
1.3443904 -2.2397268 4.9289656 2.3509886e-38
1.3443904 -2.2397268 4.9289656 2.3509886e-38
1.3443904 -2.2397268 4.9289656 2.3509886e-38
1.3443904 -2.2397268 4.9289656 2.3509886e-38
1.3443904 -2.2397268 4.9289656 2.3509886e-38
1.3443904 -2.2397268 4.9289656 2.3509886e-38
1.3443904 -2.2397268 4.9289656 2.3509886e-38
1.3443904 -2.2397268 4.9289656 2.3509886e-38
1.3443904 -2.2397268 4.9289656 2.3509886e-38
1.3443904 -2.2397268 4.9289656 2.3509886e-38
1.3443904 -2.2397268 4.9289656 2.3509886e-38
1.3443904 -2.2397268 4.9289656 2.3509886e-38
1.3443904 -2.2397268 4.9289656 2.3509886e-38
1.3443904 -2.2397268 4.9289656 2.3509886e-38
1.3443904 -2.2397268 4.9289656 2.3509886e-38
1.3443904 -2.2397268 4.9289656 2.3509886e-38
1.3443904 -2.2397268 4.9289656 2.3509886e-38
1.3443904 -2.2397268 4.9289656 2.3509886e-38
1.3443904 -2.2397268 4.9289656 2.3509886e-38
1.3443904 -2.2397268 4.9289656 2.3509886e-38
1.3443904 -2.2397268 4.9289656 2.3509886e-38
1.3443904 -2.2397268 4.9289656 2.3509886e-38
1.3443904 -2.2397268 4.9289656 2.3509886e-38
1.3443904 -2.2397268 4.9289656 2.3509886e-38
1.3443904 -2.2397268 4.9289656 2.3509886e-38
1.3443904 -2.2397268 4.9289656 2.3509886e-38
1.3443904 -2.2397268 4.9289656 2.3509886e-38
1.3443904 -2.2397268 4.9289656 2.3509886e-38
1.3443904 -2.2397268 4.9289656 2.3509886e-38
1.3443904 -2.2397268 4.9289656 2.3509886e-38
1.3443904 -2.2397268 4.9289656 2.3509886e-38
1.3443904 -2.2397268 4.9289656 2.3509886e-38
1.3443904 -2.2397268 4.9289656 2.3509886e-38
1.3443904 -2.2397268 4.9289656 2.3509886e-38
1.3443904 -2.2397268 4.9289656 2.3509886e-38
1.3443904 -2.2397268 4.9289656 2.3509886e-38
1.3443904 -2.2397268 4.9289656 2.3509886e-38
1.3443904 -2.2397268 4.9289656 2.3509886e-38
1.3443904 -2.2397268 4.9289656 2.3509886e-38
1.3443904 -2.2397268 4.9289656 2.3509886e-38
1.3443904 -2.2397268 4.9289656 2.3509886e-38
1.3443904 -2.2397268 4.9289656 2.3509886e-38
1.3443904 -2.2397268 4.9289656 2.3509886e-38
1.3443904 -2.2397268 4.9289656 2.3509886e-38
1.3443904 -2.2397268 4.9289656 2.3509886e-38
1.3443904 -2.2397268 4.9289656 2.3509886e-38
1.3443904 -2.2397268 4.9289656 2.3509886e-38
1.3443904 -2.2397268 4.9289656 2.3509886e-38
1.3443904 -2.2397268 4.9289656 2.3509886e-38
1.3443904 -2.2397268 4.9289656 2.3509886e-38
1.3443904 -2.2397268 4.9289656 2.3509886e-38
1.3443904 -2.2397268 4.9289656 2.3509886e-38
1.3443904 -2.2397268 4.9289656 2.3509886e-38
1.3443904 -2.2397268 4.9289656 2.3509886e-38
1.3443904 -2.2397268 4.9289656 2.3509886e-38
1.3443904 -2.2397268 4.9289656 2.3509886e-38
1.3443904 -2.2397268 4.9289656 2.3509886e-38
1.3443904 -2.2397268 4.9289656 2.3509886e-38
1.3443904 -2.2397268 4.9289656 2.3509886e-38
1.3443904 -2.2397268 4.9289656 2.3509886e-38
1.3443904 -2.2397268 4.9289656 2.3509886e-38
1.3443904 -2.2397268 4.9289656 2.3509886e-38
1.3443904 -2.2397268 4.9289656 2.3509886e-38
1.3443904 -2.2397268 4.9289656 2.3509886e-38
1.3443904 -2.2397268 4.9289656 2.3509886e-38
1.3443904 -2.2397268 4.9289656 2.3509886e-38
1.3443904 -2.2397268 4.9289656 2.3509886e-38
1.3443904 -2.2397268 4.9289656 2.3509886e-38
1.3443904 -2.2397268 4.9289656 2.3509886e-38
1.3443904 -2.2397268 4.9289656 2.3509886e-38
1.3443904 -2.2397268 4.9289656 2.3509886e-38
1.3443904 -2.2397268 4.9289656 2.3509886e-38
1.3443904 -2.2397268 4.9289656 2.3509886e-38
1.3443904 -2.2397268 4.9289656 2.3509886e-38
1.3443904 -2.2397268 4.9289656 2.3509886e-38
1.3443904 -2.2397268 4.9289656 2.3509886e-38
1.3443904 -2.2397268 4.9289656 2.3509886e-38
1.3443904 -2.2397268 4.9289656 2.3509886e-38
1.3443904 -2.2397268 4.9289656 2.3509886e-38
1.3443904 -2.2397268 4.9289656 2.3509886e-38
1.3443904 -2.2397268 4.9289656 2.3509886e-38
1.3443904 -2.2397268 4.9289656 2.3509886e-38
1.3443904 -2.2397268 4.9289656 2.3509886e-38
1.3443904 -2.2397268 4.9289656 2.3509886e-38
1.3443904 -2.2397268 4.9289656 2.3509886e-38
1.3443904 -2.2397268 4.9289656 2.3509886e-38
1.3443904 -2.2397268 4.9289656 2.3509886e-38
1.3443904 -2.2397268 4.9289656 2.3509886e-38
1.3443904 -2.2397268 4.9289656 2.3509886e-38
1.3443904 -2.2397268 4.9289656 2.3509886e-38
1.3443904 -2.2397268 4.9289656 2.3509886e-38
1.3443904 -2.2397268 4.9289656 2.3509886e-38
1.3443904 -2.2397268 4.9289656 2.3509886e-38
1.3443904 -2.2397268 4.9289656 2.3509886e-38
1.3443904 -2.2397268 4.9289656 2.3509886e-38
1.3443904 -2.2397268 4.9289656 2.3509886e-38
1.3443904 -2.2397268 4.9289656 2.3509886e-38
1.3443904 -2.2397268 4.9289656 2.3509886e-38
1.3443904 -2.2397268 4.9289656 2.3509886e-38
1.3443904 -2.2397268 4.9289656 2.3509886e-38
1.3443904 -2.2397268 4.9289656 2.3509886e-38
1.3443904 -2.2397268 4.9289656 2.3509886e-38
1.3443904 -2.2397268 4.9289656 2.3509886e-38
1.3443904 -2.2397268 4.9289656 2.3509886e-38
1.3443904 -2.2397268 4.9289656 2.3509886e-38
1.3443904 -2.2397268 4.9289656 2.3509886e-38
1.3443904 -2.2397268 4.9289656 2.3509886e-38
1.3443904 -2.2397268 4.9289656 2.3509886e-38
1.3443904 -2.2397268 4.9289656 2.3509886e-38
1.3443904 -2.2397268 4.9289656 2.3509886e-38
1.3443904 -2.2397268 4.9289656 2.3509886e-38
1.3443904 -2.2397268 4.9289656 2.3509886e-38
1.3443904 -2.2397268 4.9289656 2.3509886e-38
1.3443904 -2.2397268 4.9289656 2.3509886e-38
1.3443904 -2.2397268 4.9289656 2.3509886e-38
1.3443904 -2.2397268 4.9289656 2.3509886e-38
1.3443904 -2.2397268 4.9289656 2.3509886e-38
1.3443904 -2.2397268 4.9289656 2.3509886e-38
1.3443904 -2.2397268 4.9289656 2.3509886e-38
1.3443904 -2.2397268 4.9289656 2.3509886e-38
1.3443904 -2.2397268 4.9289656 2.3509886e-38
1.3443904 -2.2397268 4.9289656 2.3509886e-38
1.3443904 -2.2397268 4.9289656 2.3509886e-38
1.3443904 -2.2397268 4.9289656 2.3509886e-38
1.3443904 -2.2397268 4.9289656 2.3509886e-38
1.3443904 -2.2397268 4.9289656 2.3509886e-38
1.3443904 -2.2397268 4.9289656 2.3509886e-38
1.3443904 -2.2397268 4.9289656 2.3509886e-38
1.3443904 -2.2397268 4.9289656 2.3509886e-38
1.3443904 -2.2397268 4.9289656 2.3509886e-38
1.3443904 -2.2397268 4.9289656 2.3509886e-38
1.3443904 -2.2397268 4.9289656 2.3509886e-38
1.3443904 -2.2397268 4.9289656 2.3509886e-38
1.3443904 -2.2397268 4.9289656 2.3509886e-38
1.3443904 -2.2397268 4.9289656 2.3509886e-38
1.3443904 -2.2397268 4.9289656 2.3509886e-38
1.3443904 -2.2397268 4.9289656 2.3509886e-38
1.3443904 -2.2397268 4.9289656 2.3509886e-38
1.3443904 -2.2397268 4.9289656 2.3509886e-38
1.3443904 -2.2397268 4.9289656 2.3509886e-38
1.3443904 -2.2397268 4.9289656 2.3509886e-38
1.3443904 -2.2397268 4.9289656 2.3509886e-38
1.3443904 -2.2397268 4.9289656 2.3509886e-38
1.3443904 -2.2397268 4.9289656 2.3509886e-38
1.3443904 -2.2397268 4.9289656 2.3509886e-38
1.3443904 -2.2397268 4.9289656 2.3509886e-38
1.3443904 -2.2397268 4.9289656 2.3509886e-38
1.3443904 -2.2397268 4.9289656 2.3509886e-38
1.3443904 -2.2397268 4.9289656 2.3509886e-38
1.3443904 -2.2397268 4.9289656 2.3509886e-38
1.3443904 -2.2397268 4.9289656 2.3509886e-38
1.3443904 -2.2397268 4.9289656 2.3509886e-38
1.3443904 -2.2397268 4.9289656 2.3509886e-38
1.3443904 -2.2397268 4.9289656 2.3509886e-38
1.3443904 -2.2397268 4.9289656 2.3509886e-38
1.3443904 -2.2397268 4.9289656 2.3509886e-38
1.3443904 -2.2397268 4.9289656 2.3509886e-38
1.3443904 -2.2397268 4.9289656 2.3509886e-38
1.3443904 -2.2397268 4.9289656 2.3509886e-38
1.3443904 -2.2397268 4.9289656 2.3509886e-38
1.3443904 -2.2397268 4.9289656 2.3509886e-38
1.3443904 -2.2397268 4.9289656 2.3509886e-38
1.3443904 -2.2397268 4.9289656 2.3509886e-38
1.3443904 -2.2397268 4.9289656 2.3509886e-38
1.3443904 -2.2397268 4.9289656 2.3509886e-38
1.3443904 -2.2397268 4.9289656 2.3509886e-38
1.3443904 -2.2397268 4.9289656 2.3509886e-38
1.3443904 -2.2397268 4.9289656 2.3317961e-38
1.3443904 -2.2397268 4.9289656 2.3322983e-38
1.3443904 -2.2397268 4.9289656 2.341769e-38
1.3443904 -2.2397268 4.9289656 2.341805e-38
1.3443904 -2.2397268 4.9289656 2.3509886e-38
1.3443904 -2.2397268 4.9289656 2.3509886e-38
1.3443904 -2.2397268 4.9289656 2.3509886e-38
1.3443904 -2.2397268 4.9289656 2.3509886e-38
1.3443904 -2.2397268 4.9289656 2.3509886e-38
1.3443904 -2.2397268 4.9289656 2.3509886e-38
1.3443904 -2.2397268 4.9289656 2.3509886e-38
1.3443904 -2.2397268 4.9289656 2.3509886e-38
1.3443904 -2.2397268 4.9289656 2.3509886e-38
1.3443904 -2.2397268 4.9289656 2.3509886e-38
1.3443904 -2.2397268 4.9289656 2.3509886e-38
1.3443904 -2.2397268 4.9289656 2.3509886e-38
1.3443904 -2.2397268 4.9289656 2.3509886e-38
1.3443904 -2.2397268 4.9289656 2.3509886e-38
1.3443904 -2.2397268 4.9289656 2.3509886e-38
1.3443904 -2.2397268 4.9289656 2.3509886e-38
1.3443904 -2.2397268 4.9289656 2.3509886e-38
1.3443904 -2.2397268 4.9289656 2.3509886e-38
1.3443904 -2.2397268 4.9289656 2.3509886e-38
1.3443904 -2.2397268 4.9289656 2.3509886e-38
1.3443904 -2.2397268 4.9289656 2.3509886e-38
1.3443904 -2.2397268 4.9289656 2.3509886e-38
1.3443904 -2.2397268 4.9289656 2.3509886e-38
1.3443904 -2.2397268 4.9289656 2.3509886e-38
1.3443904 -2.2397268 4.9289656 2.3509886e-38
1.3443904 -2.2397268 4.9289656 2.3509886e-38
1.3443904 -2.2397268 4.9289656 2.3509886e-38
1.3443904 -2.2397268 4.9289656 2.3509886e-38
1.3443904 -2.2397268 4.9289656 2.3509886e-38
1.3443904 -2.2397268 4.9289656 2.3509886e-38
1.3443904 -2.2397268 4.9289656 2.3509886e-38
1.3443904 -2.2397268 4.9289656 2.3509886e-38
1.3443904 -2.2397268 4.9289656 2.3509886e-38
1.3443904 -2.2397268 4.9289656 2.3509886e-38
1.3443904 -2.2397268 4.9289656 2.3509886e-38
1.3443904 -2.2397268 4.9289656 2.3509886e-38
1.3443904 -2.2397268 4.9289656 2.3509886e-38
1.3443904 -2.2397268 4.9289656 2.3509886e-38
1.3443904 -2.2397268 4.9289656 2.3509886e-38
1.3443904 -2.2397268 4.9289656 2.3509886e-38
1.3443904 -2.2397268 4.9289656 2.3509886e-38
1.3443904 -2.2397268 4.9289656 2.3509886e-38
0.54199082 -1.4595436 3.2409635 2.3509886e-38
0.5604223 -1.4734199 3.2717764 2.3509886e-38
0.5990721 -1.5385802 3.416467 2.3509886e-38
0.62999558 -1.5813978 3.5115449 2.3509886e-38
0.63861936 -1.5675833 3.4808693 2.3509886e-38
0.65819371 -1.5806646 3.509917 2.3509886e-38
0.66964471 -1.5740968 3.4953327 2.3509884e-38
0.68700236 -1.5813978 3.5115449 2.3416614e-38
0.75860703 -1.7107345 3.7987409 2.3222534e-38
0.81620657 -1.803965 4.0057621 2.321392e-38
0.89957523 -1.949396 4.3286967 2.3027014e-38
0.96457231 -2.0502067 4.5525498 2.1829196e-38
0.98601347 -2.0563896 4.5662789 2.1553334e-38
1.0595019 -2.168889 4.8160882 2.1093436e-38
0.53693408 -1.4328953 3.2107255 2.3509886e-38
0.55681288 -1.4507372 3.2507045 2.3509886e-38
0.59772348 -1.5212818 3.4087756 2.3509886e-38
0.62191874 -1.5470545 3.4665251 2.3509886e-38
0.62623858 -1.5233395 3.4133863 2.3509886e-38
0.64621019 -1.5379003 3.4460132 2.3509886e-38
0.65631241 -1.5288539 3.4257424 2.3509884e-38
0.67912751 -1.5491825 3.4712934 2.3415179e-38
0.73322201 -1.6385874 3.6716249 2.3220742e-38
0.80850649 -1.7708423 3.967972 2.3213923e-38
0.88890231 -1.9089079 4.2773395 2.2934822e-38
0.96457231 -2.0317299 4.5525498 2.2289457e-38
0.98720431 -2.0403183 4.571794 2.1737721e-38
1.0724642 -2.1756389 4.87501 2.1000878e-38
1.3443904 -2.1997182 4.9289656 2.341769e-38
1.2594413 -2.030509 4.5498142 2.3509886e-38
0.52996671 -1.4014401 3.1690626 2.3509886e-38
0.55136782 -1.4234866 3.2189162 2.3509886e-38
0.59557819 -1.5020369 3.3965414 2.3509886e-38
0.61627519 -1.5190746 3.4350684 2.3509886e-38
0.59358853 -1.4307865 3.2354233 2.3509886e-38
0.61619955 -1.4531425 3.2859769 2.3509886e-38
0.6426453 -1.483403 3.3544044 2.3509884e-38
0.67387491 -1.5232213 3.4444454 2.3416614e-38
0.71858543 -1.5912739 3.5983322 2.3221819e-38
0.80681509 -1.7510672 3.959671 2.3306477e-38
0.90683407 -1.9297063 4.363626 2.3027016e-38
0.98470455 -2.0552735 4.6475697 2.2288371e-38
1.0185734 -2.0860064 4.7170658 2.1368211e-38
1.3443904 -2.1797137 4.9289656 2.341769e-38
1.2594413 -2.0120435 4.5498142 2.3509884e-38
0.52622217 -1.3787671 3.1466711 2.3509886e-38
0.54556882 -1.3955884 3.1850612 2.3509886e-38
0.59265351 -1.4809437 3.3798621 2.3509886e-38
0.60073882 -1.4671887 3.34847 2.3509886e-38
0.57730556 -1.3787671 3.1466711 2.3509886e-38
0.5997988 -1.4014845 3.1985173 2.3509886e-38
0.63283175 -1.4473445 3.3031809 2.3509884e-38
0.66930729 -1.4990121 3.4210985 2.3414819e-38
0.70881563 -1.5552338 3.5494096 2.3219667e-38
0.80723727 -1.7359046 3.9617429 2.3029883e-38
0.91050756 -1.9197417 4.3813024 2.3025929e-38
1.0141504 -2.0578868 4.6965823 2.1552964e-38
1.3443904 -2.1597095 4.9289656 2.341769e-38
1.2594413 -1.993578 4.5498142 2.3509884e-38
0.52059644 -1.3513927 3.1130307 2.3509886e-38
0.53809839 -1.3637291 3.1414485 2.3509886e-38
0.58559495 -1.4497517 3.3396077 2.3509886e-38
0.58952713 -1.42647 3.2859769 2.3509886e-38
0.56996191 -1.3486201 3.1066437 2.3509886e-38
0.595272 -1.378024 3.1743777 2.341805e-38
0.63366121 -1.4358178 3.3075101 2.3417331e-38
0.67234546 -1.4918689 3.4366276 2.3413384e-38
0.72933131 -1.5854255 3.6521423 2.3312221e-38
0.82361472 -1.7547182 4.04212 2.3399029e-38
0.94609565 -1.9763001 4.5525498 2.3119209e-38
1.026891 -2.0644391 4.7555847 2.2566767e-38
1.3443904 -2.1397052 4.9289656 2.3509886e-38
1.2594413 -1.9751124 4.5498142 2.3509886e-38
0.45251423 -1.1926229 2.7732201 2.3509886e-38
0.46667546 -1.200096 2.7905974 2.3509886e-38
0.53323072 -1.3387583 3.1130307 2.3509886e-38
0.57619089 -1.4131339 3.2859769 2.3509886e-38
0.55666822 -1.3343691 3.102824 2.3509886e-38
0.56189203 -1.3170956 3.0626581 2.3509886e-38
0.58400816 -1.3393091 3.1143112 2.341805e-38
0.61668813 -1.3842944 3.2189162 2.3509527e-38
0.66599691 -1.463966 3.4041774 2.3414461e-38
0.76204824 -1.6410587 3.8159733 2.3220744e-38
0.85228199 -1.7988179 4.1828127 2.3400828e-38
1.3443904 -2.1197009 4.9289656 2.3509525e-38
1.2594413 -1.9566469 4.5498142 2.3509886e-38
0.45251423 -1.1813676 2.7732201 2.3509886e-38
0.46615997 -1.1874572 2.7875149 2.3509886e-38
0.49421385 -1.2290906 2.8852479 2.3509886e-38
0.55314326 -1.3438058 3.1545379 2.3509886e-38
0.55191809 -1.3104973 3.0763474 2.3509886e-38
0.56143779 -1.303611 3.0601821 2.3509886e-38
0.58209258 -1.3223181 3.1040962 2.341805e-38
0.60713708 -1.3499932 3.1690626 2.3417333e-38
0.65655011 -1.4295806 3.3558912 2.3321191e-38
0.68473899 -1.4606584 3.4288454 2.3312939e-38
1.3443904 -2.0996964 4.9289656 2.3509525e-38
0.45102733 -1.1662676 2.7641077 2.3509886e-38
0.46822873 -1.1813636 2.7998857 2.3509886e-38
0.49839246 -1.2276738 2.9096429 2.3509886e-38
0.54608959 -1.3140301 3.1143112 2.3509886e-38
0.55079907 -1.29538 3.0701098 2.3509886e-38
0.56440353 -1.2980118 3.0763474 2.3509886e-38
0.58666271 -1.3200029 3.1284673 2.341805e-38
0.62465566 -1.3757137 3.2605042 2.3417331e-38
0.67082298 -1.4467424 3.4288454 2.3320472e-38
0.68350077 -1.4441261 3.4226451 2.3405493e-38
1.324386 -2.0796921 4.9289656 2.3417691e-38
1.3443904 -2.0796921 4.9289656 2.3509886e-38
1.2594413 -1.9197158 4.5498142 2.3509886e-38
-0.22240853 -0.82387513 1.9715861 2.3509886e-38
-0.21804081 -0.83783913 2.0050027 2.3509886e-38
-0.21352248 -0.85228461 2.0395718 2.3509886e-38
-0.22044814 -0.91541678 2.1906512 2.3509886e-38
-0.21155733 -0.91541678 2.1906512 2.3509886e-38
-0.20266652 -0.91541678 2.1906512 2.3509886e-38
-0.1937757 -0.91541678 2.1906512 2.3509886e-38
-0.18488489 -0.91541678 2.1906512 2.341805e-38
-0.17599407 -0.91541678 2.1906512 2.3417691e-38
-0.16710326 -0.91541678 2.1906512 2.3321548e-38
-0.15821244 -0.91541678 2.1906512 2.3315091e-38
-0.14932163 -0.91541678 2.1906512 2.331258e-38
-0.14308044 -0.93268883 2.2319844 2.3310069e-38
0.43869454 -1.1234661 2.6885266 2.3509886e-38
0.45806459 -1.1446022 2.7391067 2.3509886e-38
0.47994715 -1.1708663 2.8019581 2.3509886e-38
0.53659815 -1.2787714 3.0601821 2.3509886e-38
0.53517354 -1.246525 2.9830146 2.3509886e-38
0.55184633 -1.2569251 3.0079026 2.3509886e-38
0.5757193 -1.2829199 3.0701098 2.341805e-38
0.60109842 -1.3110985 3.1375427 2.3417331e-38
0.61999881 -1.3242698 3.1690626 2.3320472e-38
1.324386 -2.0596879 4.9289656 2.3509886e-38
1.3443904 -2.0596879 4.9289656 2.3509886e-38
1.2594413 -1.9012502 4.5498142 2.3509886e-38
-0.27801067 -1.0198418 2.4644828 2.3509886e-38
-0.2680085 -1.0198418 2.4644828 2.3509886e-38
-0.24768607 -0.97904807 2.3659034 2.3509886e-38
-0.23808399 -0.97904807 2.3659034 2.3509886e-38
-0.21969415 -0.94139236 2.2749071 2.3509886e-38
-0.21046138 -0.94139236 2.2749071 2.3509886e-38
-0.2012286 -0.94139236 2.2749071 2.3509886e-38
-0.18488489 -0.90652597 2.1906512 2.341805e-38
0.42894578 -1.0878311 2.6287816 2.3509886e-38
0.4547739 -1.1253426 2.7194293 2.3509886e-38
0.48262641 -1.1659672 2.8175998 2.3509886e-38
0.54608959 -1.288751 3.1143112 2.3509886e-38
0.5441789 -1.2551898 3.0332096 2.3509886e-38
0.55448985 -1.2506802 3.0223117 2.3509886e-38
0.57995254 -1.2798014 3.092684 2.341805e-38
0.60561603 -1.3081226 3.1611235 2.3416974e-38
0.6254971 -1.323038 3.1971667 2.3410515e-38
1.2522064 -1.9580961 4.7318068 2.3509886e-38
1.324386 -2.0396836 4.9289656 2.3509886e-38
1.3443904 -2.0396836 4.9289656 2.3509886e-38
1.2594413 -1.8827847 4.5498142 2.3509886e-38
-0.29009807 -1.0537456 2.5716341 2.3509886e-38
-0.28587574 -1.0771623 2.6287816 2.3509886e-38
-0.28146145 -1.1016432 2.6885266 2.3509886e-38
-0.24800417 -1.0098395 2.4644828 2.3509886e-38
-0.238002 -1.0098395 2.4644828 2.3509886e-38
-0.22186109 -0.98265034 2.3981283 2.3509886e-38
-0.21212822 -0.98265034 2.3981283 2.3509886e-38
-0.1997381 -0.96974903 2.366643 2.3509886e-38
0.41962087 -1.0537456 2.5716341 2.3509886e-38
0.449606 -1.1016432 2.6885266 2.3509886e-38
0.48244685 -1.1541023 2.8165517 2.3509886e-38
0.54586506 -1.2755868 3.1130307 2.3509886e-38
0.54157513 -1.2369326 3.0186965 2.3509886e-38
0.55294472 -1.2349631 3.0138896 2.3509886e-38
0.57782817 -1.2626077 3.0813556 2.341805e-38
0.60713708 -1.2985463 3.1690626 2.3415539e-38
0.6254971 -1.3100622 3.1971667 2.3316169e-38
1.0378548 -1.8643192 4.5498142 2.3313656e-38
1.144347 -2.0196791 4.9289656 2.341518e-38
-0.30328435 -1.0907317 2.6885266 2.3509886e-38
-0.29690662 -1.1076453 2.7302167 2.3509886e-38
-0.290328 -1.1250918 2.7732201 2.3509886e-38
-0.27684185 -1.1160976 2.7510505 2.3509886e-38
-0.27210352 -1.1430966 2.8175998 2.3509886e-38
-0.34199974 -1.4997561 3.6967239 2.3509886e-38
-0.2255604 -1.0345236 2.5499802 2.3509886e-38
-0.22025582 -1.058773 2.6097522 2.341805e-38
-0.26936048 -1.4326029 3.531199 2.3128172e-38
0.41371864 -1.0286338 2.5354624 2.3509886e-38
0.449606 -1.0907317 2.6885266 2.3509886e-38
0.50656921 -1.1998049 2.9573791 2.3509886e-38
0.57619089 -1.3331165 3.2859769 2.3509886e-38
0.55281663 -1.2501019 3.0813556 2.3509886e-38
0.56007951 -1.2385082 3.0527785 2.3509886e-38
0.58400816 -1.2634721 3.1143112 2.341769e-38
0.62091202 -1.3148546 3.2409635 2.341482e-38
0.6612398 -1.3712056 3.3798621 2.3408003e-38
-0.30328435 -1.0798203 2.6885266 2.3509886e-38
-0.29917228 -1.1049323 2.7510505 2.3509886e-38
-0.29486439 -1.1312402 2.8165517 2.3509886e-38
-0.29034632 -1.1588315 2.8852479 2.3509886e-38
-0.3808032 -1.5837364 3.9431722 2.3509886e-38
-0.3316361 -1.4397603 3.584702 2.3509886e-38
-0.3079029 -1.398057 3.4808693 2.3509886e-38
-0.29030538 -1.381542 3.4397504 2.341769e-38
-0.28198215 -1.4097236 3.509917 2.3321904e-38
-0.26346207 -1.3872143 3.4538736 2.3034903e-38
-0.25803784 -1.4350041 3.5728602 2.3398655e-38
-0.2573843 -1.5165955 3.7760053 2.3212826e-38
-0.24462141 -1.5326481 3.8159733 2.3119546e-38
0.55281663 -1.2375962 3.0813556 2.3509886e-38
0.56007951 -1.2261184 3.0527785 2.3509886e-38
0.58400816 -1.2508326 3.1143112 2.3509525e-38
0.62953579 -1.3197803 3.2859769 2.3413025e-38
0.68068802 -1.3974144 3.4792697 2.3315091e-38
-0.30328435 -1.0689088 2.6885266 2.3509886e-38
-0.30158317 -1.1025814 2.7732201 2.3509886e-38
-0.30205619 -1.1471217 2.8852479 2.3509886e-38
-0.35012352 -1.3832937 3.4792697 2.3509886e-38
-0.3808032 -1.5677329 3.9431722 2.3509886e-38
-0.3316361 -1.4252118 3.584702 2.3509886e-38
-0.31090474 -1.3974221 3.5148053 2.3509886e-38
-0.29377571 -1.3839297 3.4808693 2.341769e-38
-0.28462121 -1.4085387 3.5427659 2.3413382e-38
-0.26898408 -1.4019783 3.5262649 2.3219658e-38
-0.26376373 -1.4520247 3.6521423 2.3399376e-38
-0.26249009 -1.5310515 3.8509109 2.3398297e-38
-0.25068641 -1.5547764 3.910584 2.3118464e-38
0.5584994 -1.2376839 3.1130307 2.3509886e-38
0.5653224 -1.2250904 3.0813556 2.3509884e-38
0.59427536 -1.2599611 3.1690626 2.3417331e-38
0.64752251 -1.3437711 3.3798621 2.341159e-38
0.68068802 -1.3832937 3.4792697 2.340585e-38
-0.31033748 -1.0826019 2.7510505 2.3509886e-38
-0.30640942 -1.1087906 2.8175998 2.3509886e-38
-0.3096076 -1.1637971 2.9573791 2.3509886e-38
-0.35028449 -1.3698026 3.4808693 2.3509886e-38
-0.38100162 -1.552538 3.9452271 2.3509886e-38
-0.3316361 -1.4106631 3.584702 2.3509886e-38
-0.31090474 -1.3831571 3.5148053 2.3509886e-38
-0.29567891 -1.3786768 3.5034201 2.3509167e-38
-0.28515494 -1.3967748 3.5494096 2.3228275e-38
-0.27074957 -1.3967748 3.5494096 2.331329e-38
-0.26698348 -1.4547464 3.6967239 2.3215341e-38
-0.26437271 -1.5262913 3.87853 2.3397579e-38
-0.25290719 -1.552538 3.9452271 2.3395055e-38
0.53057438 -1.1637971 2.9573791 2.3509886e-38
0.55648923 -1.1936381 3.0332096 2.341769e-38
0.58376801 -1.2250496 3.1130307 2.3416614e-38
0.66656733 -1.369173 3.4792697 2.331832e-38
0.77144641 -1.5517294 3.9431722 2.3313658e-38
-0.31376603 -1.1237019 2.8852479 2.3509886e-38
-0.3160269 -1.1756754 3.0186965 2.3509886e-38
-0.3306722 -1.2797717 3.2859769 2.3509886e-38
-0.37265143 -1.5028511 3.8587618 2.3509886e-38
-0.32577464 -1.371439 3.5213447 2.3509886e-38
-0.3079029 -1.3556753 3.4808693 2.3509886e-38
-0.29377571 -1.3556753 3.4808693 2.3509167e-38
-0.28290024 -1.371439 3.5213447 2.3322266e-38
-0.26860878 -1.371439 3.5213447 2.3134284e-38
-0.26376373 -1.4223801 3.6521423 2.3032026e-38
-0.26302525 -1.5028511 3.8587618 2.3119908e-38
-0.25290719 -1.5365262 3.9452271 2.3395419e-38
-0.32161018 -1.1397918 2.9573791 2.3509886e-38
-0.32037002 -1.1794127 3.0601821 2.3509886e-38
-0.3306722 -1.2664354 3.2859769 2.3509886e-38
-0.357003 -1.4247398 3.6967239 2.3509886e-38
-0.3220301 -1.3415482 3.4808693 2.3509886e-38
-0.30523646 -1.3299303 3.4507251 2.341805e-38
-0.29176354 -1.3323594 3.4570277 2.3231864e-38
-0.28107002 -1.3483675 3.4985633 2.3324059e-38
-0.26687101 -1.3483675 3.4985633 2.3414459e-38
-0.26262352 -1.4014732 3.6363549 2.3312213e-38
-0.26302525 -1.4871902 3.8587618 2.3396137e-38
-0.25290719 -1.5205145 3.9452271 2.3116303e-38
-0.32161018 -1.1277893 2.9573791 2.3509886e-38
-0.32037002 -1.1669929 3.0601821 2.3509886e-38
-0.3306722 -1.2530992 3.2859769 2.3509886e-38
-0.357003 -1.4097366 3.6967239 2.3509886e-38
-0.3220301 -1.3274209 3.4808693 2.3509886e-38
-0.30523646 -1.3159255 3.4507251 2.3509886e-38
-0.29176354 -1.318329 3.4570277 2.3509525e-38
-0.28107002 -1.3341684 3.4985633 2.3416614e-38
-0.26687101 -1.3341684 3.4985633 2.3135362e-38
-0.26262352 -1.3867149 3.6363549 2.3311141e-38
-0.26302525 -1.4715294 3.8587618 2.3396495e-38
-0.25290719 -1.5045027 3.9452271 2.3207414e-38
-0.32161018 -1.1157867 2.9573791 2.3509886e-38
-0.32037002 -1.1545731 3.0601821 2.3509886e-38
-0.3306722 -1.239763 3.2859769 2.3509886e-38
-0.357003 -1.3947333 3.6967239 2.3509886e-38
-0.3220301 -1.3132937 3.4808693 2.3509886e-38
-0.30523646 -1.3019207 3.4507251 2.3509886e-38
-0.29176354 -1.3042986 3.4570277 2.3509886e-38
-0.28107002 -1.3199694 3.4985633 2.3509525e-38
-0.26687101 -1.3199694 3.4985633 2.3416614e-38
-0.26262352 -1.3719567 3.6363549 2.2945224e-38
-0.26302525 -1.4558685 3.8587618 2.256744e-38
-0.25290719 -1.4884908 3.9452271 2.210214e-38
-0.32161018 -1.1037841 2.9573791 2.3509886e-38
-0.32037002 -1.1421533 3.0601821 2.3509886e-38
-0.3306722 -1.2264267 3.2859769 2.3509886e-38
-0.357003 -1.3797301 3.6967239 2.3509886e-38
-0.3220301 -1.2991666 3.4808693 2.3509886e-38
-0.30193365 -1.2739798 3.4133863 2.3509886e-38
-0.28991023 -1.2820723 3.4350684 2.3509886e-38
-0.28094018 -1.3051673 3.4969473 2.3509884e-38
-0.26687101 -1.3057704 3.4985633 2.3509884e-38
-0.26262352 -1.3571985 3.6363549 2.3415892e-38
-0.26302525 -1.4402076 3.8587618 2.3228623e-38
-0.25290719 -1.472479 3.9452271 2.3131752e-38
-0.32710454 -1.1104333 3.0079026 2.3509886e-38
-0.32350835 -1.1408002 3.0901594 2.3509886e-38
-0.34349358 -1.2601265 3.4133863 2.3509886e-38
-0.357003 -1.3647269 3.6967239 2.3509886e-38
-0.32471743 -1.2957629 3.509917 2.3509886e-38
-0.30523646 -1.2739109 3.4507251 2.3509886e-38
-0.29203025 -1.2774043 3.4601877 2.3509886e-38
-0.28211296 -1.2963639 3.5115449 2.3509886e-38
-0.26810995 -1.2975676 3.5148053 2.3509886e-38
-0.26300249 -1.3443774 3.641602 2.3509884e-38
-0.26209018 -1.4194822 3.8450437 2.3418049e-38
-0.25146574 -1.4481661 3.9227414 2.341769e-38
-0.23457287 -1.4421881 3.9065485 2.3417691e-38
-0.33414045 -1.1218482 3.0726018 2.3509886e-38
-0.32590273 -1.1366093 3.1130307 2.3509886e-38
-0.35028449 -1.2709122 3.4808693 2.3509886e-38
-0.36465943 -1.3786703 3.7760053 2.3509886e-38
-0.32577464 -1.2856902 3.5213447 2.3509886e-38
-0.30193365 -1.2462732 3.4133863 2.3509886e-38
-0.28938505 -1.2519176 3.4288454 2.3509886e-38
-0.27964851 -1.2709122 3.4808693 2.3509886e-38
-0.26539928 -1.270328 3.4792697 2.3509886e-38
-0.26491386 -1.3392606 3.6680672 2.3509886e-38
-0.26738629 -1.4322456 3.9227414 2.3509886e-38
-0.27575505 -1.5705875 4.3016424 2.3509886e-38
-0.28808761 -1.7517326 4.7977762 2.3509886e-38
-0.34400845 -1.1864181 3.2859769 2.3509886e-38
-0.34210542 -1.2274393 3.3995917 2.3509886e-38
-0.34618473 -1.2942743 3.584702 2.3509886e-38
-0.31982443 -1.2481768 3.4570277 2.3509886e-38
-0.30030888 -1.225788 3.3950183 2.3509886e-38
-0.28808033 -1.2324198 3.4133863 2.3509886e-38
-0.27798697 -1.2493178 3.4601877 2.3509886e-38
-0.26552132 -1.2567849 3.4808693 2.3509886e-38
-0.26427364 -1.3211732 3.6592028 2.3509886e-38
-0.26683328 -1.4133956 3.914628 2.3509886e-38
-0.28448352 -1.6022903 4.4378023 2.3509886e-38
-0.29596499 -1.7796271 4.9289656 2.3509886e-38
-0.34400845 -1.1730819 3.2859769 2.3509886e-38
-0.34011999 -1.2065985 3.3798621 2.3509886e-38
-0.33600283 -1.2420866 3.4792697 2.3509886e-38
-0.31822601 -1.2279785 3.4397504 2.3509886e-38
-0.3033011 -1.2240855 3.4288454 2.3509886e-38
-0.29377571 -1.2426578 3.4808693 2.3509886e-38
-0.27952 -1.2420866 3.4792697 2.3509886e-38
-0.2734417 -1.2797257 3.584702 2.3509886e-38
-0.27559587 -1.3622886 3.8159733 2.3509886e-38
-0.26877892 -1.4076983 3.9431722 2.3509886e-38
-0.291664 -1.6242672 4.5498142 2.3509886e-38
-0.29596499 -1.7596228 4.9289656 2.3509886e-38
-0.34400845 -1.1597457 3.2859769 2.3509886e-38
-0.3306722 -1.1597457 3.2859769 2.3509886e-38
-0.31733599 -1.1597457 3.2859769 2.3509886e-38
-0.30399978 -1.1597457 3.2859769 2.3509886e-38
-0.28280777 -1.1284012 3.1971667 2.3509886e-38
-0.26273116 -1.0987064 3.1130307 2.3509886e-38
-0.2568562 -1.1284012 3.1971667 2.3509886e-38
-0.25781646 -1.1928812 3.3798621 2.3509886e-38
-0.25127858 -1.227966 3.4792697 2.3509886e-38
-0.26877892 -1.3916948 3.9431722 2.3509886e-38
-0.29183936 -1.6067673 4.5525498 2.3509886e-38
-0.2841264 -1.6700337 4.7318068 2.3509886e-38
-0.35383725 -1.1791639 3.3798621 2.3509886e-38
-0.3306722 -1.1464094 3.2859769 2.3509886e-38
-0.31733599 -1.1464094 3.2859769 2.3509886e-38
-0.30399978 -1.1464094 3.2859769 2.3509886e-38
-0.29066354 -1.1464094 3.2859769 2.3509886e-38
-0.27732733 -1.1464094 3.2859769 2.3509886e-38
-0.26399112 -1.1464094 3.2859769 2.3509886e-38
-0.25542188 -1.1682119 3.34847 2.3509886e-38
-0.24763687 -1.1962533 3.4288454 2.3509886e-38
-0.23715788 -1.2138453 3.4792697 2.3509886e-38
-0.25277546 -1.3756913 3.9431722 2.3509886e-38
-0.27319846 -1.5873362 4.5498142 2.3509886e-38
-0.3306722 -1.1330732 3.2859769 2.3509886e-38
-0.31733599 -1.1330732 3.2859769 2.3509886e-38
-0.30399978 -1.1330732 3.2859769 2.3509886e-38
-0.29066354 -1.1330732 3.2859769 2.3509886e-38
-0.27732733 -1.1330732 3.2859769 2.3509886e-38
-0.26399112 -1.1330732 3.2859769 2.3509886e-38
-0.25781646 -1.1654468 3.3798621 2.3509886e-38
-0.25127858 -1.1997246 3.4792697 2.3509886e-38
-0.26877892 -1.3596878 3.9431722 2.3509886e-38
-0.291664 -1.5688705 4.5498142 2.3509886e-38
0.62600148 -1.2796031 4.3813024 2.3509886e-38
0.66854399 -1.3288186 4.5498142 2.3509886e-38
0.71448994 -1.3819714 4.7318068 2.3509886e-38
0.71448994 -1.3819714 4.7318068 2.3509886e-38
0.71448994 -1.3819714 4.7318068 2.3509886e-38
0.62600148 -1.2618215 4.3813024 2.3509886e-38
0.66854399 -1.310353 4.5498142 2.3509886e-38
0.71448994 -1.3627672 4.7318068 2.3509886e-38
0.7642647 -1.4195491 4.9289656 2.3509886e-38
0.7642647 -1.4195491 4.9289656 2.3509886e-38
0.62168425 -1.2354603 4.3510866 2.3509886e-38
0.66296619 -1.281109 4.5118537 2.3509886e-38
0.74426037 -1.3995448 4.9289656 2.3509886e-38
0.79700893 -1.3869038 4.8844457 2.3509886e-38
0.8242777 -1.3995448 4.9289656 2.3509886e-38
0.85260826 -1.413347 4.9775743 2.3509525e-38
0.66494751 -1.2665715 4.5253382 2.3509886e-38
0.74426037 -1.3795404 4.9289656 2.3509886e-38
0.63556439 -1.2269374 4.4482322 2.3509886e-38
0.66336149 -1.2452281 4.5145445 2.3509886e-38
0.73658758 -1.3455203 4.8781514 2.3509886e-38
0.26415634 -1.3395318 4.9289656 2.3509886e-38
0.28416067 -1.3395318 4.9289656 2.3509886e-38
0.30416501 -1.3395318 4.9289656 2.3509886e-38
0.63259095 -1.2032286 4.4274216 2.3509886e-38
0.65786946 -1.216748 4.4771676 2.3509886e-38
0.72261941 -1.3005821 4.785645 2.3509886e-38
1.3643947 -1.3395318 4.9289656 2.3509886e-38
1.2779068 -1.2364908 4.5498142 2.3509886e-38
1.2928503 -1.2503357 4.6705065 2.3509886e-38
1.1075191 -1.055622 3.9431722 2.3509886e-38
1.2963723 -1.2180253 4.5498142 2.3509886e-38
1.3443904 -1.2995231 4.9289656 2.3509886e-38
1.2794324 -1.2186005 4.6220336 2.3509886e-38
1.1075191 -1.0396185 3.9431722 2.3509886e-38
1.2963723 -1.1995598 4.5498142 2.3509886e-38
1.3000684 -1.2191941 4.6965823 2.3509886e-38
1.3098189 -1.2091339 4.7318068 2.3509886e-38
1.4044033 -1.2595145 4.9289656 2.3509886e-38
1.4644164 -1.2595145 4.9289656 2.3509886e-38
1.4844207 -1.2595145 4.9289656 2.3509886e-38
1.5232675 -1.2752895 4.9906993 2.3509886e-38
1.4644164 -1.2395102 4.9289656 2.3509886e-38
1.4541264 -1.214214 4.8283744 2.3509886e-38
1.4774916 -1.2173194 4.840723 2.3509886e-38
0.11241601 -1.1044581 4.4639688 2.3509886e-38
1.4798312 -1.2323427 4.9808493 2.3509886e-38
1.4691174 -1.2069336 4.8781514 2.3509886e-38
1.4765475 -1.1969079 4.8376298 2.3509886e-38
1.54556 -1.2364099 4.9972878 2.3509886e-38
-2.7765024 -1.1995015 4.9289656 2.3509886e-38
-2.7564981 -1.1995015 4.9289656 2.3509886e-38
0.11175706 -1.0799732 4.4378023 2.3509886e-38
0.13304339 -1.1072321 4.5498142 2.3509886e-38
0.20670018 -1.2145249 4.9906993 2.3509886e-38
1.4844207 -1.1995015 4.9289656 2.3509886e-38
1.4718451 -1.173525 4.8222232 2.3509886e-38
1.5445405 -1.2153261 4.9939914 2.3509525e-38
0.11348664 -1.0783974 4.5064826 2.3509886e-38
0.14029418 -1.1481037 4.7977762 2.3509886e-38
1.4769163 -1.1895651 4.9710379 2.3509886e-38
1.4485834 -1.1510214 4.8099689 2.3509886e-38
1.4415451 -1.1301981 4.7229514 2.3509527e-38
1.5106603 -1.1688436 4.8844457 2.3323342e-38
0.11916097 -1.113113 4.7318068 2.3509886e-38
1.4769163 -1.16939 4.9710379 2.3509886e-38
1.4485834 -1.1315 4.8099689 2.3417691e-38
1.4343866 -1.1055127 4.6994977 2.3416614e-38
1.5029033 -1.1431201 4.859365 2.3228994e-38
0.12412601 -1.1394885 4.9289656 2.3509886e-38
1.4541264 -1.1162336 4.8283744 2.3417691e-38
1.4299486 -1.0830781 4.684957 2.3323702e-38
1.4933186 -1.1162336 4.8283744 2.3414103e-38
1.400844 -0.80434483 3.4792697 2.3509886e-38
1.4578425 -0.8287189 3.584702 2.3509886e-38
1.5184033 -0.85461634 3.6967239 2.3509886e-38
1.5334065 -0.85461634 3.6967239 2.3509886e-38
1.5484097 -0.85461634 3.6967239 2.3509886e-38
1.4714476 -0.80434483 3.4792697 2.3509886e-38
1.6836441 -0.91159075 3.9431722 2.3509886e-38
1.9611317 -1.0518355 4.5498142 2.3509886e-38
0.12412601 -1.1194842 4.9289656 2.3509886e-38
0.18656829 -1.134253 4.9939914 2.3509886e-38
1.4394382 -1.0855603 4.7796025 2.3509886e-38
1.4255378 -1.060782 4.6705065 2.3416973e-38
1.4838551 -1.0896879 4.7977762 2.3416255e-38
1.564438 -1.1194842 4.9289656 2.3416254e-38
1.7580107 -1.03337 4.5498142 2.3509886e-38
1.7764763 -1.03337 4.5498142 2.3509886e-38
1.7949419 -1.03337 4.5498142 2.3509886e-38
1.8134074 -1.03337 4.5498142 2.3509886e-38
1.3743176 -0.77526045 3.4133863 2.3509886e-38
1.5034 -0.83961308 3.6967239 2.3509886e-38
1.567384 -0.86669737 3.8159733 2.3509886e-38
1.6364859 -0.89605403 3.9452271 2.3509886e-38
1.4714476 -0.79022408 3.4792697 2.3509886e-38
1.6836441 -0.89558733 3.9431722 2.3509886e-38
1.9611317 -1.03337 4.5498142 2.3509886e-38
0.12159283 -1.0770414 4.8283744 2.3509886e-38
0.18486112 -1.1037915 4.9482946 2.3509886e-38
1.4250438 -1.0555006 4.7318068 2.3509886e-38
1.4202808 -1.0379846 4.6532826 2.3509886e-38
1.4643674 -1.0561607 4.734766 2.3508808e-38
1.5444337 -1.0994798 4.9289656 2.3323342e-38
1.5132096 -1.0634767 4.7675633 2.3324061e-38
1.5701313 -1.0895491 4.8844457 2.3417331e-38
1.632956 -1.1052363 4.9547715 2.3509886e-38
1.6617655 -1.1110532 4.9808493 2.3509886e-38
1.7580107 -1.0149044 4.5498142 2.3509886e-38
1.7764763 -1.0149044 4.5498142 2.3509886e-38
1.7949419 -1.0149044 4.5498142 2.3509886e-38
1.8134074 -1.0149044 4.5498142 2.3509886e-38
1.3743176 -0.76140714 3.4133863 2.3509886e-38
1.5034 -0.82460988 3.6967239 2.3509886e-38
1.567384 -0.85121018 3.8159733 2.3509886e-38
1.6364859 -0.8800422 3.9452271 2.3509886e-38
1.4714476 -0.77610338 3.4792697 2.3509886e-38
1.6836441 -0.87958384 3.9431722 2.3509886e-38
1.9611317 -1.0149044 4.5498142 2.3509886e-38
0.12159283 -1.0574454 4.8283744 2.3509886e-38
0.18354154 -1.0759729 4.9129725 2.3509886e-38
1.4394382 -1.0467641 4.7796025 2.3509884e-38
1.4317205 -1.0273075 4.6907625 2.3417331e-38
1.4680398 -1.0395451 4.7466402 2.3416971e-38
1.5216485 -1.0635499 4.8562479 2.3416614e-38
1.5065686 -1.0395451 4.7466402 2.3323341e-38
1.5521067 -1.0574454 4.8283744 2.3416973e-38
1.6044466 -1.0794755 4.9289656 2.3509884e-38
1.5963895 -1.0608281 4.8438201 2.3509886e-38
1.613983 -1.0594724 4.8376298 2.3509886e-38
1.6515568 -1.0711074 4.8907561 2.3509886e-38
1.7580107 -0.99643892 4.5498142 2.3509886e-38
1.7764763 -0.99643892 4.5498142 2.3509886e-38
1.7949419 -0.99643892 4.5498142 2.3509886e-38
1.8134074 -0.99643892 4.5498142 2.3509886e-38
1.3743176 -0.74755383 3.4133863 2.3509886e-38
1.5034 -0.80960661 3.6967239 2.3509886e-38
1.567384 -0.83572292 3.8159733 2.3509886e-38
1.6364859 -0.86403042 3.9452271 2.3509886e-38
1.4714476 -0.76198268 3.4792697 2.3509886e-38
1.6836441 -0.86358041 3.9431722 2.3509886e-38
1.9611317 -0.99643892 4.5498142 2.3509886e-38
0.12159283 -1.0378493 4.8283744 2.3509886e-38
0.18212332 -1.0478736 4.87501 2.3509886e-38
0.20629223 -1.0706235 4.9808493 2.3509886e-38
1.4541264 -1.0378493 4.8283744 2.3509525e-38
1.4451512 -1.0177283 4.734766 2.3417331e-38
1.4735831 -1.0241332 4.7645631 2.3417331e-38
1.499526 -1.0286648 4.785645 2.3324418e-38
1.4981152 -1.0145559 4.7200069 2.3322982e-38
1.5306311 -1.0234891 4.7615666 2.3416973e-38
1.5617428 -1.0312723 4.7977762 2.341769e-38
1.5604483 -1.0177283 4.734766 2.3509886e-38
1.5688717 -1.010775 4.7024164 2.3509886e-38
1.5771807 -1.0039159 4.6705065 2.3509886e-38
1.6050476 -1.0095209 4.6965823 2.3509886e-38
1.7580107 -0.97797334 4.5498142 2.3509886e-38
1.7764763 -0.97797334 4.5498142 2.3509884e-38
1.7949419 -0.97797334 4.5498142 2.3509525e-38
1.8134074 -0.97797334 4.5498142 2.3509525e-38
1.3743176 -0.73370045 3.4133863 2.3509886e-38
1.5034 -0.79460335 3.6967239 2.3509886e-38
1.567384 -0.82023573 3.8159733 2.3509886e-38
1.6364859 -0.84801859 3.9452271 2.3509886e-38
1.4714476 -0.74786198 3.4792697 2.3509886e-38
1.6836441 -0.84757692 3.9431722 2.3509886e-38
1.9611317 -0.97797334 4.5498142 2.3509886e-38
0.12159283 -1.0182532 4.8283744 2.3509886e-38
0.16413468 -1.0394669 4.9289656 2.3509886e-38
0.17878477 -1.0092421 4.785645 2.3509886e-38
0.20481004 -1.0428616 4.9450626 2.3509886e-38
1.4643996 -1.025447 4.8624859 2.3509886e-38
1.4515055 -1.0029026 4.7555847 2.341769e-38
1.4708062 -1.0029026 4.7555847 2.3417331e-38
1.476198 -0.99354142 4.7111955 2.3417331e-38
1.4906803 -0.99045968 4.6965823 2.3416614e-38
1.5097415 -0.99045968 4.6965823 2.3417331e-38
1.5288028 -0.99045968 4.6965823 2.3509884e-38
1.5113003 -0.96706301 4.5856395 2.3509886e-38
1.5188715 -0.9600848 4.5525498 2.3509886e-38
1.5074352 -0.94140393 4.4639688 2.3509886e-38
1.3940392 -0.86024839 4.0791435 2.3509886e-38
1.6042055 -0.97832167 4.6390262 2.3509886e-38
1.7244726 -1.0394669 4.9289656 2.3509886e-38
1.744477 -1.0394669 4.9289656 2.3509886e-38
1.7580107 -0.95950782 4.5498142 2.3417691e-38
1.7764763 -0.95950782 4.5498142 2.341769e-38
1.7949419 -0.95950782 4.5498142 2.3417331e-38
1.8134074 -0.95950782 4.5498142 2.3417331e-38
1.3743176 -0.71984714 3.4133863 2.341805e-38
1.5034 -0.77960008 3.6967239 2.3509886e-38
1.567384 -0.80474848 3.8159733 2.3509886e-38
1.6364859 -0.83200675 3.9452271 2.3509886e-38
1.4714476 -0.73374128 3.4792697 2.3509886e-38
1.6836441 -0.83157343 3.9431722 2.3509886e-38
1.9611317 -0.95950782 4.5498142 2.3509886e-38
0.12159283 -0.99865711 4.8283744 2.3509886e-38
0.14413035 -1.0194625 4.9289656 2.3509886e-38
0.15976608 -0.99232846 4.7977762 2.3509886e-38
0.17545752 -0.97139847 4.6965823 2.3509886e-38
0.20494391 -1.0234604 4.9482946 2.3509886e-38
1.2779068 -0.9410423 4.5498142 2.3509886e-38
1.4844207 -1.0194625 4.9289656 2.3509886e-38
1.4643832 -0.99232846 4.7977762 2.3509525e-38
1.4838551 -0.99232846 4.7977762 2.3416973e-38
1.5033271 -0.99232846 4.7977762 2.341769e-38
1.522799 -0.99232846 4.7977762 2.341769e-38
1.5422709 -0.99232846 4.7977762 2.3325136e-38
1.5617428 -0.99232846 4.7977762 2.341769e-38
1.2717415 -0.79811132 3.8587618 2.3509884e-38
1.4805882 -0.91787475 4.4378023 2.3509886e-38
1.4795197 -0.90618885 4.3813024 2.3509886e-38
1.3475713 -0.81557 3.9431722 2.3509886e-38
1.5733554 -0.9410423 4.5498142 2.3509886e-38
1.7580107 -0.9410423 4.5498142 2.3417691e-38
1.7764763 -0.9410423 4.5498142 2.341769e-38
1.7949419 -0.9410423 4.5498142 2.3417331e-38
1.8134074 -0.9410423 4.5498142 2.3509525e-38
1.3743176 -0.70599383 3.4133863 2.3509886e-38
1.5034 -0.76459688 3.6967239 2.3509886e-38
1.567384 -0.78926128 3.8159733 2.3509886e-38
1.6364859 -0.81599498 3.9452271 2.3509886e-38
1.4714476 -0.71962059 3.4792697 2.3509886e-38
1.6836441 -0.81557 3.9431722 2.3509886e-38
1.9611317 -0.9410423 4.5498142 2.3417691e-38
0.12412601 -0.99945813 4.9289656 2.3509886e-38
0.16037586 -0.97656977 4.8160882 2.3509886e-38
0.17545752 -0.95233727 4.6965823 2.3509886e-38
1.2779068 -0.92257673 4.5498142 2.3509886e-38
1.2576395 -0.77377403 3.8159733 2.3509884e-38
1.3772538 -0.8370598 4.1280756 2.3509886e-38
1.4266797 -0.85667843 4.2248273 2.3509886e-38
1.3475713 -0.79956651 3.9431722 2.3509886e-38
1.5733554 -0.92257673 4.5498142 2.3509886e-38
1.7580107 -0.92257673 4.5498142 2.3509886e-38
1.7764763 -0.92257673 4.5498142 2.3509884e-38
1.7949419 -0.92257673 4.5498142 2.3509884e-38
1.8134074 -0.92257673 4.5498142 2.3509884e-38
1.3743176 -0.69214052 3.4133863 2.3509886e-38
1.5034 -0.74959362 3.6967239 2.3509886e-38
1.567384 -0.77377403 3.8159733 2.3509886e-38
1.6364859 -0.79998314 3.9452271 2.3509886e-38
1.4714476 -0.70549989 3.4792697 2.3509886e-38
1.6836441 -0.79956651 3.9431722 2.3509886e-38
1.9611317 -0.92257673 4.5498142 2.3509886e-38
0.18118995 -0.96376747 4.8500261 2.3509886e-38
1.0696311 -0.65296918 3.2859769 2.341805e-38
1.2183383 -0.73459035 3.6967239 2.3509886e-38
1.3457024 -0.80151361 4.0335059 2.3509886e-38
1.4266797 -0.83953184 4.2248273 2.3509886e-38
1.3475713 -0.78356302 3.9431722 2.3509886e-38
1.5733554 -0.90411121 4.5498142 2.3509886e-38
1.7580107 -0.90411121 4.5498142 2.3509886e-38
1.7764763 -0.90411121 4.5498142 2.3509886e-38
1.7949419 -0.90411121 4.5498142 2.3509886e-38
1.8134074 -0.90411121 4.5498142 2.3509886e-38
1.3743176 -0.67828721 3.4133863 2.3509886e-38
1.5034 -0.73459035 3.6967239 2.3509886e-38
1.567384 -0.75828683 3.8159733 2.3509886e-38
1.6364859 -0.78397137 3.9452271 2.3509886e-38
1.4714476 -0.69137913 3.4792697 2.3509886e-38
1.6836441 -0.78356302 3.9431722 2.3509886e-38
1.9611317 -0.90411121 4.5498142 2.3509886e-38
0.16815548 -0.87616789 4.5011239 2.3509886e-38
0.18251698 -0.85780817 4.406805 2.3509886e-38
0.19924238 -0.852844 4.3813024 2.3509886e-38
0.22203521 -0.87253666 4.4824696 2.3509886e-38
0.25615162 -0.93037522 4.7796025 2.3509886e-38
0.2648488 -0.89424419 4.593987 2.3509886e-38
0.27776304 -0.87616789 4.5011239 2.3509886e-38
0.31198251 -0.92337996 4.7436657 2.3509886e-38
1.7580107 -0.88564569 4.5498142 2.3509886e-38
1.7764763 -0.88564569 4.5498142 2.3509886e-38
1.7949419 -0.88564569 4.5498142 2.3509886e-38
1.8134074 -0.88564569 4.5498142 2.3509886e-38
1.3743176 -0.6644339 3.4133863 2.3509886e-38
1.5034 -0.71958709 3.6967239 2.3509886e-38
1.567384 -0.74279958 3.8159733 2.3509886e-38
1.6364859 -0.76795954 3.9452271 2.3509886e-38
1.4714476 -0.67725843 3.4792697 2.3509886e-38
1.6836441 -0.76755959 3.9431722 2.3509886e-38
1.9611317 -0.88564569 4.5498142 2.3509886e-38
0.12412601 -0.93944514 4.9289656 2.3509886e-38
0.14413035 -0.93944514 4.9289656 2.3509886e-38
0.12574108 -0.71969461 3.7760053 2.3509886e-38
0.14415775 -0.73546773 3.8587618 2.3509886e-38
0.15981863 -0.73546773 3.8587618 2.3509886e-38
0.17737807 -0.74342489 3.9005105 2.3509886e-38
0.21702401 -0.83506233 4.3813024 2.3509886e-38
0.25712556 -0.91444087 4.7977762 2.3509886e-38
0.28093654 -0.86770159 4.5525498 2.3509886e-38
1.80449 -0.93944514 4.9289656 2.3509886e-38
1.864503 -0.93944514 4.9289656 2.3509886e-38
1.8091271 -0.90186733 4.7318068 2.3509886e-38
1.7590679 -0.86770159 4.5525498 2.3509886e-38
1.7764763 -0.86718011 4.5498142 2.3509886e-38
1.7949419 -0.86718011 4.5498142 2.3509886e-38
1.8134074 -0.86718011 4.5498142 2.3509886e-38
1.8318729 -0.86718011 4.5498142 2.3509886e-38
1.6036267 -0.7515561 3.9431722 2.3509886e-38
1.567384 -0.72731239 3.8159733 2.3509886e-38
1.6364859 -0.75194776 3.9452271 2.3509886e-38
1.4714476 -0.66313773 3.4792697 2.3509886e-38
1.6836441 -0.7515561 3.9431722 2.3509886e-38
1.9611317 -0.86718011 4.5498142 2.3509886e-38
0.11457785 -0.84871459 4.5498142 2.3509886e-38
0.13304339 -0.84871459 4.5498142 2.3509886e-38
0.13130774 -0.73555267 3.9431722 2.3509886e-38
0.14731121 -0.73555267 3.9431722 2.3509886e-38
0.15310751 -0.68958062 3.6967239 2.3509886e-38
0.1630165 -0.66868424 3.584702 2.3509886e-38
0.16741852 -0.63047367 3.3798621 2.3509886e-38
0.17134465 -0.59639406 3.1971667 2.3509886e-38
0.18604894 -0.60198683 3.2271488 2.3509886e-38
0.20663311 -0.62461787 3.34847 2.3509886e-38
0.22715516 -0.64427972 3.4538736 2.3509886e-38
0.24830942 -0.6633448 3.5560784 2.3509886e-38
0.28510571 -0.71980685 3.8587618 2.3509886e-38
0.31794402 -0.76091653 4.0791435 2.3509886e-38
0.3880192 -0.88266319 4.7318068 2.3509886e-38
1.80449 -0.91944081 4.9289656 2.3509886e-38
1.864503 -0.91944081 4.9289656 2.3509886e-38
1.7580107 -0.84871459 4.5498142 2.3509886e-38
1.7764763 -0.84871459 4.5498142 2.3509886e-38
1.7949419 -0.84871459 4.5498142 2.3509886e-38
1.8134074 -0.84871459 4.5498142 2.3509886e-38
1.8318729 -0.84871459 4.5498142 2.3509886e-38
1.7181715 -0.78809214 4.2248273 2.3509886e-38
1.6196301 -0.73555267 3.9431722 2.3509886e-38
1.6920347 -0.76091653 4.0791435 2.3509886e-38
1.7696111 -0.78809214 4.2248273 2.3509886e-38
1.6676406 -0.73555267 3.9431722 2.3509886e-38
1.9426662 -0.84871459 4.5498142 2.3509886e-38
0.10639372 -0.77094555 4.2248273 2.3509886e-38
0.11530428 -0.71954918 3.9431722 2.3509886e-38
0.13130774 -0.71954918 3.9431722 2.3509886e-38
0.14731121 -0.71954918 3.9431722 2.3509886e-38
0.14410119 -0.63489634 3.4792697 2.3509886e-38
0.11954543 -0.47969946 2.6287816 2.3509886e-38
0.12927181 -0.47622696 2.6097522 2.3509886e-38
0.14196786 -0.48339203 2.6490171 2.3509886e-38
0.15499674 -0.49060172 2.6885266 2.3509886e-38
0.16848087 -0.4982093 2.7302167 2.3509886e-38
0.18353266 -0.50922757 2.7905974 2.3509886e-38
0.20650421 -0.53966188 2.9573791 2.3509886e-38
0.24278533 -0.59962434 3.2859769 2.3509886e-38
0.27446702 -0.64257413 3.5213447 2.3509886e-38
0.29704821 -0.66102123 3.6224358 2.3509886e-38
0.32840595 -0.69633794 3.8159733 2.3509886e-38
0.35535628 -0.71954918 3.9431722 2.3509886e-38
0.42849201 -0.83024907 4.5498142 2.3509886e-38
0.11158478 -0.68085068 3.8159733 2.3509886e-38
